ply
format ascii 1.0
element vertex 373
property float x
property float y
property float z
property float scale_0
property float scale_1
property float scale_2
property float rot_0
property float rot_1
property float rot_2
property float rot_3
property float opacity
property float f_dc_0
property float f_dc_1
property float f_dc_2
end_header
-1.258463 0.083878 0.997389 0.002000 0.002000 0.002000 1.000000 0.000000 0.000000 0.000000 0.500000 0.500000 0.407043 0.386114
-0.766128 -0.368408 -0.160428 0.002000 0.002000 0.002000 1.000000 0.000000 0.000000 0.000000 0.500000 0.500000 0.407043 0.386114
0.731489 -0.498953 -0.305604 0.002000 0.002000 0.002000 1.000000 0.000000 0.000000 0.000000 0.500000 0.500000 0.407043 0.386114
0.978071 0.905255 -0.901806 0.002000 0.002000 0.002000 1.000000 0.000000 0.000000 0.000000 0.500000 0.500000 0.407043 0.386114
-0.228053 -0.948023 -0.153658 0.002000 0.002000 0.002000 1.000000 0.000000 0.000000 0.000000 0.500000 0.500000 0.407043 0.386114
1.032127 0.179553 -0.272178 0.002000 0.002000 0.002000 1.000000 0.000000 0.000000 0.000000 0.500000 0.500000 0.407043 0.386114
0.158561 1.113930 -0.571349 0.002000 0.002000 0.002000 1.000000 0.000000 0.000000 0.000000 0.500000 0.500000 0.407043 0.386114
-0.987097 -1.678288 1.828480 0.002000 0.002000 0.002000 1.000000 0.000000 0.000000 0.000000 0.500000 0.500000 0.407043 0.386114
-1.401865 -0.134507 -0.579904 0.002000 0.002000 0.002000 1.000000 0.000000 0.000000 0.000000 0.500000 0.500000 0.407043 0.386114
1.030258 0.166832 0.130060 0.002000 0.002000 0.002000 1.000000 0.000000 0.000000 0.000000 0.500000 0.500000 0.407043 0.386114
0.338137 1.025932 -1.154947 0.002000 0.002000 0.002000 1.000000 0.000000 0.000000 0.000000 0.500000 0.500000 0.407043 0.386114
0.210589 0.075294 0.439626 0.002000 0.002000 0.002000 1.000000 0.000000 0.000000 0.000000 0.500000 0.500000 0.407043 0.386114
0.029414 0.182147 0.034711 0.002000 0.002000 0.002000 1.000000 0.000000 0.000000 0.000000 0.500000 0.500000 0.407043 0.386114
-1.895501 0.549544 0.197902 0.002000 0.002000 0.002000 1.000000 0.000000 0.000000 0.000000 0.500000 0.500000 0.407043 0.386114
-0.331057 -1.321700 -0.243501 0.002000 0.002000 0.002000 1.000000 0.000000 0.000000 0.000000 0.500000 0.500000 0.407043 0.386114
-0.495603 1.650679 0.799094 0.002000 0.002000 0.002000 1.000000 0.000000 0.000000 0.000000 0.500000 0.500000 0.407043 0.386114
0.695836 -0.932300 0.185233 0.002000 0.002000 0.002000 1.000000 0.000000 0.000000 0.000000 0.500000 0.500000 0.407043 0.386114
0.039213 -1.023435 0.319605 0.002000 0.002000 0.002000 1.000000 0.000000 0.000000 0.000000 0.500000 0.500000 0.407043 0.386114
-0.843394 -2.109411 0.518328 0.002000 0.002000 0.002000 1.000000 0.000000 0.000000 0.000000 0.500000 0.500000 0.407043 0.386114
0.622359 0.017574 1.375881 0.002000 0.002000 0.002000 1.000000 0.000000 0.000000 0.000000 0.500000 0.500000 0.407043 0.386114
-0.024099 -0.114417 -0.284060 0.002000 0.002000 0.002000 1.000000 0.000000 0.000000 0.000000 0.500000 0.500000 0.407043 0.386114
-0.106385 0.342245 -0.219733 0.002000 0.002000 0.002000 1.000000 0.000000 0.000000 0.000000 0.500000 0.500000 0.407043 0.386114
-0.094405 -0.514840 0.513794 0.002000 0.002000 0.002000 1.000000 0.000000 0.000000 0.000000 0.500000 0.500000 0.407043 0.386114
0.394528 0.561278 -0.006536 0.002000 0.002000 0.002000 1.000000 0.000000 0.000000 0.000000 0.500000 0.500000 0.407043 0.386114
-0.498257 0.470821 -0.591301 0.002000 0.002000 0.002000 1.000000 0.000000 0.000000 0.000000 0.500000 0.500000 0.407043 0.386114
-0.415132 0.532189 1.317676 0.002000 0.002000 0.002000 1.000000 0.000000 0.000000 0.000000 0.500000 0.500000 0.407043 0.386114
-0.789805 -0.508818 0.236614 0.002000 0.002000 0.002000 1.000000 0.000000 0.000000 0.000000 0.500000 0.500000 0.407043 0.386114
1.217243 0.214870 1.248182 0.002000 0.002000 0.002000 1.000000 0.000000 0.000000 0.000000 0.500000 0.500000 0.407043 0.386114
2.461074 0.141533 1.837677 0.002000 0.002000 0.002000 1.000000 0.000000 0.000000 0.000000 0.500000 0.500000 0.407043 0.386114
-0.227662 0.962482 0.045333 0.002000 0.002000 0.002000 1.000000 0.000000 0.000000 0.000000 0.500000 0.500000 0.407043 0.386114
-2.037699 -1.092264 -0.173838 0.002000 0.002000 0.002000 1.000000 0.000000 0.000000 0.000000 0.500000 0.500000 0.407043 0.386114
-1.065432 0.926750 -0.162344 0.002000 0.002000 0.002000 1.000000 0.000000 0.000000 0.000000 0.500000 0.500000 0.407043 0.386114
0.368537 -0.260396 0.126955 0.002000 0.002000 0.002000 1.000000 0.000000 0.000000 0.000000 0.500000 0.500000 0.407043 0.386114
-1.702608 0.642218 -0.682313 0.002000 0.002000 0.002000 1.000000 0.000000 0.000000 0.000000 0.500000 0.500000 0.407043 0.386114
-1.645835 0.156974 -0.362445 0.002000 0.002000 0.002000 1.000000 0.000000 0.000000 0.000000 0.500000 0.500000 0.407043 0.386114
-0.128388 -0.307798 -1.713757 0.002000 0.002000 0.002000 1.000000 0.000000 0.000000 0.000000 0.500000 0.500000 0.407043 0.386114
0.234398 -0.402555 -1.402302 0.002000 0.002000 0.002000 1.000000 0.000000 0.000000 0.000000 0.500000 0.500000 0.407043 0.386114
-0.866064 0.833736 0.178629 0.002000 0.002000 0.002000 1.000000 0.000000 0.000000 0.000000 0.500000 0.500000 0.407043 0.386114
1.002273 -0.676571 0.027516 0.002000 0.002000 0.002000 1.000000 0.000000 0.000000 0.000000 0.500000 0.500000 0.407043 0.386114
-1.037028 1.425004 0.366148 0.002000 0.002000 0.002000 1.000000 0.000000 0.000000 0.000000 0.500000 0.500000 0.407043 0.386114
0.848926 0.473597 0.541896 0.002000 0.002000 0.002000 1.000000 0.000000 0.000000 0.000000 0.500000 0.500000 0.407043 0.386114
0.002253 -0.543549 0.180753 0.002000 0.002000 0.002000 1.000000 0.000000 0.000000 0.000000 0.500000 0.500000 0.407043 0.386114
-0.769608 -1.034639 0.731463 0.002000 0.002000 0.002000 1.000000 0.000000 0.000000 0.000000 0.500000 0.500000 0.407043 0.386114
1.672652 0.355463 0.303480 0.002000 0.002000 0.002000 1.000000 0.000000 0.000000 0.000000 0.500000 0.500000 0.407043 0.386114
0.048063 0.503223 -0.025566 0.002000 0.002000 0.002000 1.000000 0.000000 0.000000 0.000000 0.500000 0.500000 0.407043 0.386114
-1.853471 0.212939 0.806103 0.002000 0.002000 0.002000 1.000000 0.000000 0.000000 0.000000 0.500000 0.500000 0.407043 0.386114
0.702125 -0.648593 -0.472952 0.002000 0.002000 0.002000 1.000000 0.000000 0.000000 0.000000 0.500000 0.500000 0.407043 0.386114
2.219071 -1.868391 -1.373275 0.002000 0.002000 0.002000 1.000000 0.000000 0.000000 0.000000 0.500000 0.500000 0.407043 0.386114
-1.017061 1.369693 1.172944 0.002008 0.002000 0.002008 1.000000 -0.000009 0.000003 -0.000038 0.497762 0.496101 0.410946 0.382197
-2.780085 -1.031031 -0.702293 0.002000 0.002000 0.002000 1.000000 0.000000 0.000000 0.000000 0.500000 0.500000 0.407043 0.386114
0.809924 0.894858 -1.226512 0.002000 0.002000 0.002000 1.000000 0.000000 0.000000 0.000000 0.500000 0.500000 0.407043 0.386114
0.786126 -2.095715 0.453824 0.002000 0.002000 0.002000 1.000000 0.000000 0.000000 0.000000 0.500000 0.500000 0.407043 0.386114
-0.439073 0.483611 0.926372 0.002000 0.002000 0.002000 1.000000 0.000000 0.000000 0.000000 0.500000 0.500000 0.407043 0.386114
0.069310 1.481802 -0.913212 0.002000 0.002000 0.002000 1.000000 0.000000 0.000000 0.000000 0.500000 0.500000 0.407043 0.386114
-1.606929 -0.596676 0.791206 0.002000 0.002000 0.002000 1.000000 0.000000 0.000000 0.000000 0.500000 0.500000 0.407043 0.386114
1.113891 1.432640 0.349993 0.002000 0.002000 0.002000 1.000000 0.000000 0.000000 0.000000 0.500000 0.500000 0.407043 0.386114
0.292657 0.998199 0.934537 0.002000 0.002000 0.002000 1.000000 0.000000 0.000000 0.000000 0.500000 0.500000 0.407043 0.386114
0.085682 -0.590502 -0.603374 0.002000 0.002000 0.002000 1.000000 0.000000 0.000000 0.000000 0.500000 0.500000 0.407043 0.386114
0.689674 0.722585 -0.423901 0.002000 0.002000 0.002000 1.000000 0.000000 0.000000 0.000000 0.500000 0.500000 0.407043 0.386114
1.326100 -1.067255 0.624319 0.002000 0.002000 0.002000 1.000000 0.000000 0.000000 0.000000 0.500000 0.500000 0.407043 0.386114
-2.466773 1.298196 -1.373163 0.002016 0.002016 0.002016 1.000000 0.000000 0.000000 0.000000 0.497985 0.491939 0.415104 0.378053
0.401182 1.012945 -0.072182 0.002000 0.002000 0.002000 1.000000 0.000000 0.000000 0.000000 0.500000 0.500000 0.407043 0.386114
0.031169 -0.755985 -0.795619 0.002000 0.002000 0.002000 1.000000 0.000000 0.000000 0.000000 0.500000 0.500000 0.407043 0.386114
-0.669370 1.907948 -0.519891 0.002027 0.002031 0.002028 0.999970 -0.001888 -0.006253 -0.004280 0.495455 0.488893 0.420857 0.375791
-0.063088 0.950359 0.669218 0.002000 0.002000 0.002000 1.000000 0.000000 0.000000 0.000000 0.500000 0.500000 0.407043 0.386114
0.125007 0.508546 -1.064666 0.002000 0.002000 0.002000 1.000000 0.000000 0.000000 0.000000 0.500000 0.500000 0.407043 0.386114
-0.464773 -0.915267 -0.400901 0.002000 0.002000 0.002000 1.000000 0.000000 0.000000 0.000000 0.500000 0.500000 0.407043 0.386114
-0.088861 -0.950865 0.280143 0.002000 0.002000 0.002000 1.000000 0.000000 0.000000 0.000000 0.500000 0.500000 0.407043 0.386114
0.064670 -2.057403 1.112996 0.002000 0.002000 0.002000 1.000000 0.000000 0.000000 0.000000 0.500000 0.500000 0.407043 0.386114
-0.758030 0.097756 0.889148 0.002000 0.002000 0.002000 1.000000 0.000000 0.000000 0.000000 0.500000 0.500000 0.407043 0.386114
0.346027 -0.113944 1.456670 0.002000 0.002000 0.002000 1.000000 0.000000 0.000000 0.000000 0.500000 0.500000 0.407043 0.386114
-1.130946 1.233080 0.878902 0.002000 0.002000 0.002000 1.000000 0.000000 0.000000 0.000000 0.500000 0.500000 0.407043 0.386114
0.766413 0.432474 -1.018404 0.002000 0.002000 0.002000 1.000000 0.000000 0.000000 0.000000 0.500000 0.500000 0.407043 0.386114
0.012393 0.669515 1.203363 0.002000 0.002000 0.002000 1.000000 0.000000 0.000000 0.000000 0.500000 0.500000 0.407043 0.386114
0.829829 -0.919160 0.958232 0.002000 0.002000 0.002000 1.000000 0.000000 0.000000 0.000000 0.500000 0.500000 0.407043 0.386114
0.272415 0.991579 0.382571 0.002000 0.002000 0.002000 1.000000 0.000000 0.000000 0.000000 0.500000 0.500000 0.407043 0.386114
-0.522708 1.537138 -2.521267 0.002015 0.002017 0.002020 0.999952 -0.006501 -0.004826 0.005604 0.497692 0.489749 0.416317 0.377428
-0.625206 -0.451966 -0.572008 0.002000 0.002000 0.002000 1.000000 0.000000 0.000000 0.000000 0.500000 0.500000 0.407043 0.386114
1.731107 0.404532 0.591071 0.002000 0.002000 0.002000 1.000000 0.000000 0.000000 0.000000 0.500000 0.500000 0.407043 0.386114
0.520678 0.263026 1.462549 0.002000 0.002000 0.002000 1.000000 0.000000 0.000000 0.000000 0.500000 0.500000 0.407043 0.386114
0.822740 2.142880 0.113945 0.002032 0.002023 0.002033 0.999946 0.004283 -0.000687 -0.009481 0.495635 0.483986 0.422145 0.370860
-1.074194 -0.044602 -0.774086 0.002000 0.002000 0.002000 1.000000 0.000000 0.000000 0.000000 0.500000 0.500000 0.407043 0.386114
1.447615 -1.809449 0.714421 0.002000 0.002000 0.002000 1.000000 0.000000 0.000000 0.000000 0.500000 0.500000 0.407043 0.386114
1.472545 -1.772386 0.048361 0.002000 0.002000 0.002000 1.000000 0.000000 0.000000 0.000000 0.500000 0.500000 0.407043 0.386114
0.203436 -0.689096 -0.541212 0.002000 0.002000 0.002000 1.000000 0.000000 0.000000 0.000000 0.500000 0.500000 0.407043 0.386114
2.046507 -0.588472 -0.835240 0.002000 0.002000 0.002000 1.000000 0.000000 0.000000 0.000000 0.500000 0.500000 0.407043 0.386114
0.050243 0.437561 1.383305 0.002000 0.002000 0.002000 1.000000 0.000000 0.000000 0.000000 0.500000 0.500000 0.407043 0.386114
-1.389426 0.389765 -1.538392 0.002000 0.002000 0.002000 1.000000 0.000000 0.000000 0.000000 0.500000 0.500000 0.407043 0.386114
-2.017491 0.856983 0.046529 0.002000 0.002000 0.002000 1.000000 0.000000 0.000000 0.000000 0.500000 0.500000 0.407043 0.386114
-0.349898 -0.877000 -0.383425 0.002000 0.002000 0.002000 1.000000 0.000000 0.000000 0.000000 0.500000 0.500000 0.407043 0.386114
-0.059069 0.760587 -0.974800 0.002000 0.002000 0.002000 1.000000 0.000000 0.000000 0.000000 0.500000 0.500000 0.407043 0.386114
0.901384 -0.433477 -1.508413 0.002000 0.002000 0.002000 1.000000 0.000000 0.000000 0.000000 0.500000 0.500000 0.407043 0.386114
2.240524 0.866621 0.736622 0.002001 0.002001 0.002001 0.999996 0.000545 -0.000939 -0.002766 0.499863 0.488585 0.418401 0.374700
-0.622414 -0.568276 -1.424646 0.002000 0.002000 0.002000 1.000000 0.000000 0.000000 0.000000 0.500000 0.500000 0.407043 0.386114
0.498359 -1.394503 -2.804394 0.002000 0.002000 0.002000 1.000000 0.000000 0.000000 0.000000 0.500000 0.500000 0.407043 0.386114
0.481132 0.329690 1.493607 0.002000 0.002000 0.002000 1.000000 0.000000 0.000000 0.000000 0.500000 0.500000 0.407043 0.386114
1.691656 0.159589 1.024785 0.002000 0.002000 0.002000 1.000000 0.000000 0.000000 0.000000 0.500000 0.500000 0.407043 0.386114
0.128538 -0.463783 1.384272 0.002000 0.002000 0.002000 1.000000 0.000000 0.000000 0.000000 0.500000 0.500000 0.407043 0.386114
-0.684370 -0.365594 0.408841 0.002000 0.002000 0.002000 1.000000 0.000000 0.000000 0.000000 0.500000 0.500000 0.407043 0.386114
-0.137720 -0.482222 -0.959638 0.002000 0.002000 0.002000 1.000000 0.000000 0.000000 0.000000 0.500000 0.500000 0.407043 0.386114
0.883997 -1.103223 0.461341 0.002000 0.002000 0.002000 1.000000 0.000000 0.000000 0.000000 0.500000 0.500000 0.407043 0.386114
-0.626628 -0.059073 1.432356 0.002000 0.002000 0.002000 1.000000 0.000000 0.000000 0.000000 0.500000 0.500000 0.407043 0.386114
-0.321478 -0.320653 -1.381635 0.002000 0.002000 0.002000 1.000000 0.000000 0.000000 0.000000 0.500000 0.500000 0.407043 0.386114
-0.366592 -1.376768 -0.657509 0.002000 0.002000 0.002000 1.000000 0.000000 0.000000 0.000000 0.500000 0.500000 0.407043 0.386114
1.819729 -0.520496 1.479948 0.002000 0.002000 0.002000 1.000000 0.000000 0.000000 0.000000 0.500000 0.500000 0.407043 0.386114
0.424801 -0.303559 0.070468 0.002000 0.002000 0.002000 1.000000 0.000000 0.000000 0.000000 0.500000 0.500000 0.407043 0.386114
-1.535387 1.348887 0.332720 0.002021 0.002007 0.002009 0.999982 0.001504 -0.003303 0.004760 0.498480 0.490343 0.414937 0.379065
-1.068090 0.089590 3.131156 0.002000 0.002000 0.002000 1.000000 0.000000 0.000000 0.000000 0.500000 0.500000 0.407043 0.386114
-0.854471 -0.835770 1.298594 0.002000 0.002000 0.002000 1.000000 0.000000 0.000000 0.000000 0.500000 0.500000 0.407043 0.386114
-0.711093 0.280896 0.152962 0.002000 0.002000 0.002000 1.000000 0.000000 0.000000 0.000000 0.500000 0.500000 0.407043 0.386114
0.093971 0.874592 -1.226547 0.002000 0.002000 0.002000 1.000000 0.000000 0.000000 0.000000 0.500000 0.500000 0.407043 0.386114
1.320921 1.034198 -0.494608 0.002000 0.002000 0.002000 1.000000 0.000000 0.000000 0.000000 0.500000 0.500000 0.407043 0.386114
-3.408747 2.111089 0.280381 0.002019 0.002012 0.002023 0.999807 0.005891 -0.009915 0.015879 0.497699 0.489061 0.418157 0.376062
-0.030417 0.086122 -1.729832 0.002000 0.002000 0.002000 1.000000 0.000000 0.000000 0.000000 0.500000 0.500000 0.407043 0.386114
0.081093 1.268983 -0.343400 0.002000 0.002000 0.002000 1.000000 0.000000 0.000000 0.000000 0.500000 0.500000 0.407043 0.386114
0.987784 1.373253 -0.329529 0.002000 0.002000 0.002000 1.000000 0.000000 0.000000 0.000000 0.500000 0.500000 0.407043 0.386114
-0.540729 0.517515 -1.134611 0.002000 0.002000 0.002000 1.000000 0.000000 0.000000 0.000000 0.500000 0.500000 0.407043 0.386114
0.485270 1.963996 0.492839 0.001981 0.001982 0.001976 0.999950 -0.005707 -0.000855 -0.008139 0.501495 0.480403 0.428291 0.367268
0.567365 0.246279 2.888268 0.002000 0.002000 0.002000 1.000000 0.000000 0.000000 0.000000 0.500000 0.500000 0.407043 0.386114
-0.555633 0.017247 -0.395829 0.002000 0.002000 0.002000 1.000000 0.000000 0.000000 0.000000 0.500000 0.500000 0.407043 0.386114
-1.004781 0.157636 -2.729582 0.002000 0.002000 0.002000 1.000000 0.000000 0.000000 0.000000 0.500000 0.500000 0.407043 0.386114
-0.128349 -0.443396 -1.799870 0.002000 0.002000 0.002000 1.000000 0.000000 0.000000 0.000000 0.500000 0.500000 0.407043 0.386114
-0.487320 -0.360197 -0.258838 0.002000 0.002000 0.002000 1.000000 0.000000 0.000000 0.000000 0.500000 0.500000 0.407043 0.386114
1.355859 -0.627425 0.472834 0.002000 0.002000 0.002000 1.000000 0.000000 0.000000 0.000000 0.500000 0.500000 0.407043 0.386114
-0.685469 1.416846 0.857891 0.002000 0.002000 0.002000 1.000000 0.000000 0.000000 0.000000 0.500000 0.500000 0.407043 0.386114
0.882949 -0.965311 -1.340207 0.002000 0.002000 0.002000 1.000000 0.000000 0.000000 0.000000 0.500000 0.500000 0.407043 0.386114
0.033997 -0.445820 0.151768 0.002000 0.002000 0.002000 1.000000 0.000000 0.000000 0.000000 0.500000 0.500000 0.407043 0.386114
1.623102 -0.429679 -0.161595 0.002000 0.002000 0.002000 1.000000 0.000000 0.000000 0.000000 0.500000 0.500000 0.407043 0.386114
-1.027697 -0.991871 0.294104 0.002000 0.002000 0.002000 1.000000 0.000000 0.000000 0.000000 0.500000 0.500000 0.407043 0.386114
-0.359595 -0.132891 -0.097667 0.002000 0.002000 0.002000 1.000000 0.000000 0.000000 0.000000 0.500000 0.500000 0.407043 0.386114
-1.993507 0.116081 -0.672963 0.002000 0.002000 0.002000 1.000000 0.000000 0.000000 0.000000 0.500000 0.500000 0.407043 0.386114
0.854504 -1.179386 -0.954055 0.002000 0.002000 0.002000 1.000000 0.000000 0.000000 0.000000 0.500000 0.500000 0.407043 0.386114
-0.969674 0.314136 1.200021 0.002000 0.002000 0.002000 1.000000 0.000000 0.000000 0.000000 0.500000 0.500000 0.407043 0.386114
-0.183172 -0.180452 -0.103475 0.002000 0.002000 0.002000 1.000000 0.000000 0.000000 0.000000 0.500000 0.500000 0.407043 0.386114
-0.108698 0.578225 1.749954 0.002000 0.002000 0.002000 1.000000 0.000000 0.000000 0.000000 0.500000 0.500000 0.407043 0.386114
0.002035 0.365010 -0.894672 0.002000 0.002000 0.002000 1.000000 0.000000 0.000000 0.000000 0.500000 0.500000 0.407043 0.386114
-0.362592 1.179726 0.826813 0.002000 0.002000 0.002000 1.000000 0.000000 0.000000 0.000000 0.500000 0.500000 0.407043 0.386114
1.457730 -1.029436 -1.295732 0.002000 0.002000 0.002000 1.000000 0.000000 0.000000 0.000000 0.500000 0.500000 0.407043 0.386114
0.284213 -2.201947 0.549113 0.002000 0.002000 0.002000 1.000000 0.000000 0.000000 0.000000 0.500000 0.500000 0.407043 0.386114
-1.293069 0.451081 -0.395365 0.002000 0.002000 0.002000 1.000000 0.000000 0.000000 0.000000 0.500000 0.500000 0.407043 0.386114
1.716155 0.153929 -1.465180 0.002000 0.002000 0.002000 1.000000 0.000000 0.000000 0.000000 0.500000 0.500000 0.407043 0.386114
-0.517070 -0.879355 -0.810099 0.002000 0.002000 0.002000 1.000000 0.000000 0.000000 0.000000 0.500000 0.500000 0.407043 0.386114
0.678867 0.337162 -0.529045 0.002000 0.002000 0.002000 1.000000 0.000000 0.000000 0.000000 0.500000 0.500000 0.407043 0.386114
0.932497 0.676221 0.143787 0.002000 0.002000 0.002000 1.000000 0.000000 0.000000 0.000000 0.500000 0.500000 0.407043 0.386114
2.182328 0.037648 0.217750 0.002000 0.002000 0.002000 1.000000 0.000000 0.000000 0.000000 0.500000 0.500000 0.407043 0.386114
2.411992 0.390679 1.687671 0.002007 0.002007 0.002007 1.000000 0.000000 0.000000 0.000000 0.499150 0.490814 0.416226 0.376928
-2.743908 -1.904049 0.918781 0.002000 0.002000 0.002000 1.000000 0.000000 0.000000 0.000000 0.500000 0.500000 0.407043 0.386114
0.108067 2.825386 0.471890 0.001999 0.001998 0.001998 1.000000 0.000000 0.000000 0.000000 0.500246 0.492300 0.414743 0.378414
-1.914913 -1.538435 -0.652998 0.002000 0.002000 0.002000 1.000000 0.000000 0.000000 0.000000 0.500000 0.500000 0.407043 0.386114
0.164149 -0.197002 1.038715 0.002000 0.002000 0.002000 1.000000 0.000000 0.000000 0.000000 0.500000 0.500000 0.407043 0.386114
-0.390853 1.020784 -1.226858 0.002000 0.002000 0.002000 1.000000 0.000000 0.000000 0.000000 0.500000 0.500000 0.407043 0.386114
-2.057999 0.598772 -0.135957 0.002000 0.002000 0.002000 1.000000 0.000000 0.000000 0.000000 0.500000 0.500000 0.407043 0.386114
-0.219259 -0.470112 -0.950082 0.002000 0.002000 0.002000 1.000000 0.000000 0.000000 0.000000 0.500000 0.500000 0.407043 0.386114
-0.680840 -0.980899 -0.751958 0.002000 0.002000 0.002000 1.000000 0.000000 0.000000 0.000000 0.500000 0.500000 0.407043 0.386114
-1.032486 -1.808029 0.217943 0.002000 0.002000 0.002000 1.000000 0.000000 0.000000 0.000000 0.500000 0.500000 0.407043 0.386114
0.685762 0.437338 -1.956176 0.002000 0.002000 0.002000 1.000000 0.000000 0.000000 0.000000 0.500000 0.500000 0.407043 0.386114
1.291589 -1.697738 -1.202518 0.002000 0.002000 0.002000 1.000000 0.000000 0.000000 0.000000 0.500000 0.500000 0.407043 0.386114
-1.646543 -0.789656 -1.313945 0.002000 0.002000 0.002000 1.000000 0.000000 0.000000 0.000000 0.500000 0.500000 0.407043 0.386114
1.211776 0.933203 -0.260524 0.002000 0.002000 0.002000 1.000000 0.000000 0.000000 0.000000 0.500000 0.500000 0.407043 0.386114
1.515171 -1.521173 -1.166998 0.002000 0.002000 0.002000 1.000000 0.000000 0.000000 0.000000 0.500000 0.500000 0.407043 0.386114
-2.033406 -0.082605 1.448000 0.002000 0.002000 0.002000 1.000000 0.000000 0.000000 0.000000 0.500000 0.500000 0.407043 0.386114
0.153559 -0.190148 -0.989811 0.002000 0.002000 0.002000 1.000000 0.000000 0.000000 0.000000 0.500000 0.500000 0.407043 0.386114
0.379075 1.921069 0.031245 0.002000 0.002000 0.002000 1.000000 0.000000 0.000000 0.000000 0.500000 0.500000 0.407043 0.386114
0.313316 -1.200236 -0.227395 0.002000 0.002000 0.002000 1.000000 0.000000 0.000000 0.000000 0.500000 0.500000 0.407043 0.386114
-0.238401 -0.682720 0.462129 0.002000 0.002000 0.002000 1.000000 0.000000 0.000000 0.000000 0.500000 0.500000 0.407043 0.386114
-0.916500 -1.665153 0.706010 0.002000 0.002000 0.002000 1.000000 0.000000 0.000000 0.000000 0.500000 0.500000 0.407043 0.386114
0.903396 -0.382488 0.197894 0.002000 0.002000 0.002000 1.000000 0.000000 0.000000 0.000000 0.500000 0.500000 0.407043 0.386114
-0.032256 -0.925549 1.169992 0.002000 0.002000 0.002000 1.000000 0.000000 0.000000 0.000000 0.500000 0.500000 0.407043 0.386114
0.247317 -2.150991 1.215032 0.002000 0.002000 0.002000 1.000000 0.000000 0.000000 0.000000 0.500000 0.500000 0.407043 0.386114
-0.330083 -0.515694 0.022917 0.002000 0.002000 0.002000 1.000000 0.000000 0.000000 0.000000 0.500000 0.500000 0.407043 0.386114
-0.691630 1.284094 -1.692632 0.002027 0.002006 0.002014 0.999939 -0.005481 0.009508 -0.001036 0.497601 0.487597 0.418783 0.374019
0.328505 -0.849126 0.974798 0.002000 0.002000 0.002000 1.000000 0.000000 0.000000 0.000000 0.500000 0.500000 0.407043 0.386114
-0.373222 0.609092 -0.758986 0.002000 0.002000 0.002000 1.000000 0.000000 0.000000 0.000000 0.500000 0.500000 0.407043 0.386114
-0.649236 -1.337039 1.169713 0.002000 0.002000 0.002000 1.000000 0.000000 0.000000 0.000000 0.500000 0.500000 0.407043 0.386114
-0.557974 0.386807 -0.491076 0.002000 0.002000 0.002000 1.000000 0.000000 0.000000 0.000000 0.500000 0.500000 0.407043 0.386114
-0.325215 0.130931 0.624261 0.002000 0.002000 0.002000 1.000000 0.000000 0.000000 0.000000 0.500000 0.500000 0.407043 0.386114
0.679276 0.395945 0.669491 0.002000 0.002000 0.002000 1.000000 0.000000 0.000000 0.000000 0.500000 0.500000 0.407043 0.386114
-0.196224 -0.320043 0.204335 0.002000 0.002000 0.002000 1.000000 0.000000 0.000000 0.000000 0.500000 0.500000 0.407043 0.386114
-1.962153 -0.547047 -0.134504 0.002000 0.002000 0.002000 1.000000 0.000000 0.000000 0.000000 0.500000 0.500000 0.407043 0.386114
0.525965 1.234081 0.190758 0.002000 0.002000 0.002000 1.000000 0.000000 0.000000 0.000000 0.500000 0.500000 0.407043 0.386114
-0.193110 1.576706 0.119044 0.002000 0.002000 0.002000 1.000000 0.000000 0.000000 0.000000 0.500000 0.500000 0.407043 0.386114
0.289979 -2.092812 -0.044765 0.002000 0.002000 0.002000 1.000000 0.000000 0.000000 0.000000 0.500000 0.500000 0.407043 0.386114
0.111118 0.388519 0.547877 0.002000 0.002000 0.002000 1.000000 0.000000 0.000000 0.000000 0.500000 0.500000 0.407043 0.386114
-1.349567 -0.447435 -0.709996 0.002000 0.002000 0.002000 1.000000 0.000000 0.000000 0.000000 0.500000 0.500000 0.407043 0.386114
-1.751257 0.901633 -1.384005 0.002000 0.002000 0.002000 1.000000 0.000000 0.000000 0.000000 0.500000 0.500000 0.407043 0.386114
-0.807733 1.206517 0.189402 0.002000 0.002000 0.002000 1.000000 0.000000 0.000000 0.000000 0.500000 0.500000 0.407043 0.386114
-0.653278 -0.235921 0.605745 0.002000 0.002000 0.002000 1.000000 0.000000 0.000000 0.000000 0.500000 0.500000 0.407043 0.386114
-0.355870 1.464441 -0.823672 0.002000 0.002000 0.002000 1.000000 0.000000 0.000000 0.000000 0.500000 0.500000 0.407043 0.386114
-0.357690 -0.938069 1.436506 0.002000 0.002000 0.002000 1.000000 0.000000 0.000000 0.000000 0.500000 0.500000 0.407043 0.386114
1.585512 -1.267495 -0.382906 0.002000 0.002000 0.002000 1.000000 0.000000 0.000000 0.000000 0.500000 0.500000 0.407043 0.386114
0.847060 1.837566 0.019102 0.002008 0.002008 0.002013 0.999976 -0.004428 -0.004068 -0.003370 0.498873 0.494047 0.415024 0.381347
0.287624 0.399126 2.458701 0.002000 0.002000 0.002000 1.000000 0.000000 0.000000 0.000000 0.500000 0.500000 0.407043 0.386114
0.456731 1.106606 0.916955 0.002000 0.002000 0.002000 1.000000 0.000000 0.000000 0.000000 0.500000 0.500000 0.407043 0.386114
-0.231278 -1.498668 0.642739 0.002000 0.002000 0.002000 1.000000 0.000000 0.000000 0.000000 0.500000 0.500000 0.407043 0.386114
0.182229 -1.075719 1.572142 0.002000 0.002000 0.002000 1.000000 0.000000 0.000000 0.000000 0.500000 0.500000 0.407043 0.386114
1.009473 0.402943 1.614553 0.002000 0.002000 0.002000 1.000000 0.000000 0.000000 0.000000 0.500000 0.500000 0.407043 0.386114
0.447552 0.549911 0.219994 0.002000 0.002000 0.002000 1.000000 0.000000 0.000000 0.000000 0.500000 0.500000 0.407043 0.386114
-0.019641 0.201996 -0.305207 0.002000 0.002000 0.002000 1.000000 0.000000 0.000000 0.000000 0.500000 0.500000 0.407043 0.386114
-0.118799 0.801785 -0.387051 0.002000 0.002000 0.002000 1.000000 0.000000 0.000000 0.000000 0.500000 0.500000 0.407043 0.386114
1.560798 0.049644 -0.333245 0.002000 0.002000 0.002000 1.000000 0.000000 0.000000 0.000000 0.500000 0.500000 0.407043 0.386114
0.981777 1.098376 -0.256711 0.002000 0.002000 0.002000 1.000000 0.000000 0.000000 0.000000 0.500000 0.500000 0.407043 0.386114
-2.272680 0.179145 -1.624816 0.001990 0.001990 0.001990 1.000000 0.000000 0.000000 0.000000 0.501313 0.494749 0.412294 0.380863
-0.011094 1.209807 -1.447691 0.002000 0.002000 0.002000 1.000000 0.000000 0.000000 0.000000 0.500000 0.500000 0.407043 0.386114
1.361288 -1.306271 1.640743 0.002000 0.002000 0.002000 1.000000 0.000000 0.000000 0.000000 0.500000 0.500000 0.407043 0.386114
-0.339317 0.133479 -0.914130 0.002000 0.002000 0.002000 1.000000 0.000000 0.000000 0.000000 0.500000 0.500000 0.407043 0.386114
-0.154796 0.395034 -0.098814 0.002000 0.002000 0.002000 1.000000 0.000000 0.000000 0.000000 0.500000 0.500000 0.407043 0.386114
-1.813877 -0.693361 1.377083 0.002000 0.002000 0.002000 1.000000 0.000000 0.000000 0.000000 0.500000 0.500000 0.407043 0.386114
1.052138 0.504408 -2.028766 0.002010 0.002019 0.002020 0.999981 0.004955 0.003639 0.000000 0.497826 0.494675 0.412247 0.380672
-0.787157 0.072425 -1.958385 0.002000 0.002000 0.002000 1.000000 0.000000 0.000000 0.000000 0.500000 0.500000 0.407043 0.386114
-0.168268 -0.094073 -1.502116 0.002000 0.002000 0.002000 1.000000 0.000000 0.000000 0.000000 0.500000 0.500000 0.407043 0.386114
0.908324 -0.627319 1.345549 0.002000 0.002000 0.002000 1.000000 0.000000 0.000000 0.000000 0.500000 0.500000 0.407043 0.386114
0.327718 1.340882 1.215856 0.002000 0.002000 0.002000 1.000000 0.000000 0.000000 0.000000 0.500000 0.500000 0.407043 0.386114
0.958852 0.513674 0.576307 0.002000 0.002000 0.002000 1.000000 0.000000 0.000000 0.000000 0.500000 0.500000 0.407043 0.386114
0.077858 -1.061162 2.042307 0.002000 0.002000 0.002000 1.000000 0.000000 0.000000 0.000000 0.500000 0.500000 0.407043 0.386114
0.650926 -1.007209 0.357814 0.002000 0.002000 0.002000 1.000000 0.000000 0.000000 0.000000 0.500000 0.500000 0.407043 0.386114
-1.087735 0.054892 2.209187 0.002008 0.002008 0.002008 1.000000 0.000000 0.000000 0.000000 0.499027 0.496107 0.410936 0.382221
0.758804 -1.586313 -0.673068 0.002000 0.002000 0.002000 1.000000 0.000000 0.000000 0.000000 0.500000 0.500000 0.407043 0.386114
-1.227818 1.342331 -1.161090 0.002012 0.002022 0.002018 0.999961 0.006141 -0.006127 0.001684 0.497536 0.498714 0.406467 0.384910
1.496052 1.586910 -0.297052 0.002004 0.002022 0.002022 0.999962 0.000699 0.005885 0.006323 0.497416 0.487111 0.419962 0.382554
2.119019 0.787787 -1.962555 0.002000 0.002000 0.002000 1.000000 0.000000 0.000000 0.000000 0.500000 0.500000 0.407043 0.386114
-0.535755 2.654781 1.191807 0.002020 0.002016 0.002017 0.999855 0.010059 0.010216 0.009140 0.497466 0.487934 0.419183 0.374273
1.272293 -0.699772 -1.096972 0.002000 0.002000 0.002000 1.000000 0.000000 0.000000 0.000000 0.500000 0.500000 0.407043 0.386114
-0.551661 -0.326322 0.620529 0.002000 0.002000 0.002000 1.000000 0.000000 0.000000 0.000000 0.500000 0.500000 0.407043 0.386114
-1.398280 -0.426975 3.080261 0.002011 0.002012 0.002012 1.000000 0.000000 0.000000 0.000000 0.498552 0.494210 0.412833 0.380324
0.370140 -0.728436 -0.928958 0.002000 0.002000 0.002000 1.000000 0.000000 0.000000 0.000000 0.500000 0.500000 0.407043 0.386114
0.898338 -0.483859 0.032833 0.002000 0.002000 0.002000 1.000000 0.000000 0.000000 0.000000 0.500000 0.500000 0.407043 0.386114
-0.109490 0.466670 -1.100154 0.002000 0.002000 0.002000 1.000000 0.000000 0.000000 0.000000 0.500000 0.500000 0.407043 0.386114
0.870354 0.914340 -0.933376 0.002000 0.002000 0.002000 1.000000 0.000000 0.000000 0.000000 0.500000 0.500000 0.407043 0.386114
-1.924343 0.544184 1.674157 0.002000 0.002000 0.002000 1.000000 0.000000 0.000000 0.000000 0.500000 0.500000 0.407043 0.386114
-0.145755 -0.663499 1.212149 0.002000 0.002000 0.002000 1.000000 0.000000 0.000000 0.000000 0.500000 0.500000 0.407043 0.386114
0.922174 0.571063 -0.704951 0.002000 0.002000 0.002000 1.000000 0.000000 0.000000 0.000000 0.500000 0.500000 0.407043 0.386114
2.031718 0.935190 -1.044114 0.001978 0.001978 0.002009 0.999966 0.005685 0.005640 0.002116 0.500337 0.489064 0.417982 0.387434
0.290852 -0.082518 1.519506 0.002000 0.002000 0.002000 1.000000 0.000000 0.000000 0.000000 0.500000 0.500000 0.407043 0.386114
-0.358427 -0.610255 -1.506093 0.002000 0.002000 0.002000 1.000000 0.000000 0.000000 0.000000 0.500000 0.500000 0.407043 0.386114
-0.773254 1.084791 1.487243 0.002000 0.002000 0.002000 1.000000 0.000000 0.000000 0.000000 0.500000 0.500000 0.407043 0.386114
0.604155 -1.125724 0.376158 0.002000 0.002000 0.002000 1.000000 0.000000 0.000000 0.000000 0.500000 0.500000 0.407043 0.386114
1.959293 -0.795816 0.453949 0.002000 0.002000 0.002000 1.000000 0.000000 0.000000 0.000000 0.500000 0.500000 0.407043 0.386114
-2.504109 0.401252 -1.536560 0.002015 0.002015 0.002015 0.999997 0.000000 0.001911 -0.001313 0.498156 0.492618 0.408566 0.384591
-0.513373 -1.380646 -0.533219 0.002000 0.002000 0.002000 1.000000 0.000000 0.000000 0.000000 0.500000 0.500000 0.407043 0.386114
1.093905 0.628982 -1.741372 0.002012 0.002012 0.002012 1.000000 0.000000 0.000000 0.000000 0.498530 0.494120 0.412923 0.380235
-2.147830 0.497336 -1.268905 0.002000 0.002000 0.002000 1.000000 0.000000 0.000000 0.000000 0.500000 0.500000 0.407043 0.386114
-0.242328 -1.074585 -0.681986 0.002000 0.002000 0.002000 1.000000 0.000000 0.000000 0.000000 0.500000 0.500000 0.407043 0.386114
1.007020 -0.827936 0.661395 0.002000 0.002000 0.002000 1.000000 0.000000 0.000000 0.000000 0.500000 0.500000 0.407043 0.386114
-0.032975 -0.139950 1.025787 0.002000 0.002000 0.002000 1.000000 0.000000 0.000000 0.000000 0.500000 0.500000 0.407043 0.386114
-1.979504 0.607594 1.368937 0.002008 0.002008 0.002008 1.000000 0.000000 0.000000 0.000000 0.499027 0.496107 0.410936 0.382221
-0.173065 0.755546 -0.146366 0.002000 0.002000 0.002000 1.000000 0.000000 0.000000 0.000000 0.500000 0.500000 0.407043 0.386114
-0.094298 0.296579 0.119241 0.002000 0.002000 0.002000 1.000000 0.000000 0.000000 0.000000 0.500000 0.500000 0.407043 0.386114
0.116748 -0.567304 -1.753294 0.002000 0.002000 0.002000 1.000000 0.000000 0.000000 0.000000 0.500000 0.500000 0.407043 0.386114
-0.500477 -0.811143 2.026946 0.002000 0.002000 0.002000 1.000000 0.000000 0.000000 0.000000 0.500000 0.500000 0.407043 0.386114
-2.581160 1.011138 -0.543145 0.002012 0.002012 0.002012 1.000000 0.000000 0.000000 0.000000 0.498455 0.493820 0.413223 0.379935
2.519127 0.943130 1.459123 0.002009 0.002009 0.002009 0.999985 0.003107 0.003450 0.002913 0.498936 0.495811 0.411225 0.381940
1.922300 -0.418275 -2.163867 0.002006 0.002011 0.002012 1.000000 0.000857 0.000000 -0.000046 0.498595 0.493837 0.413145 0.379929
-1.184392 -0.132715 -0.612974 0.002000 0.002000 0.002000 1.000000 0.000000 0.000000 0.000000 0.500000 0.500000 0.407043 0.386114
1.065476 -1.361000 1.183761 0.002000 0.002000 0.002000 1.000000 0.000000 0.000000 0.000000 0.500000 0.500000 0.407043 0.386114
-1.167383 -0.250773 0.332648 0.002000 0.002000 0.002000 1.000000 0.000000 0.000000 0.000000 0.500000 0.500000 0.407043 0.386114
1.145145 1.861291 0.283577 0.002033 0.002031 0.002005 0.999707 -0.008846 -0.008984 -0.020659 0.497844 0.492049 0.414815 0.377774
0.280115 0.728179 0.024031 0.002000 0.002000 0.002000 1.000000 0.000000 0.000000 0.000000 0.500000 0.500000 0.407043 0.386114
2.393790 -1.312996 -0.486248 0.002000 0.002000 0.002000 1.000000 0.000000 0.000000 0.000000 0.500000 0.500000 0.407043 0.386114
0.424761 1.052401 2.610913 0.002001 0.002012 0.002007 0.999899 -0.004133 -0.010747 -0.008286 0.499119 0.488042 0.407878 0.374157
-0.738667 0.329653 2.811424 0.002000 0.002000 0.002000 1.000000 0.000000 0.000000 0.000000 0.500000 0.500000 0.407043 0.386114
-0.879488 -0.330602 0.645703 0.002000 0.002000 0.002000 1.000000 0.000000 0.000000 0.000000 0.500000 0.500000 0.407043 0.386114
0.178404 -1.128993 -0.360231 0.002000 0.002000 0.002000 1.000000 0.000000 0.000000 0.000000 0.500000 0.500000 0.407043 0.386114
-2.398158 1.325748 -0.415079 0.002009 0.001999 0.002016 0.999955 0.006284 -0.005519 -0.004590 0.498991 0.486106 0.420817 0.380236
-0.301504 -1.534840 1.602136 0.002000 0.002000 0.002000 1.000000 0.000000 0.000000 0.000000 0.500000 0.500000 0.407043 0.386114
-1.069447 0.084529 0.338870 0.002000 0.002000 0.002000 1.000000 0.000000 0.000000 0.000000 0.500000 0.500000 0.407043 0.386114
-1.223061 0.198217 0.385154 0.002000 0.002000 0.002000 1.000000 0.000000 0.000000 0.000000 0.500000 0.500000 0.407043 0.386114
-0.073158 0.878038 0.129633 0.002000 0.002000 0.002000 1.000000 0.000000 0.000000 0.000000 0.500000 0.500000 0.407043 0.386114
-0.666382 0.492148 -0.983423 0.002000 0.002000 0.002000 1.000000 0.000000 0.000000 0.000000 0.500000 0.500000 0.407043 0.386114
-1.295342 -1.500258 1.155816 0.002000 0.002000 0.002000 1.000000 0.000000 0.000000 0.000000 0.500000 0.500000 0.407043 0.386114
-0.752866 0.589938 -1.330565 0.002000 0.002000 0.002000 1.000000 0.000000 0.000000 0.000000 0.500000 0.500000 0.407043 0.386114
1.276455 -1.150996 1.454296 0.002000 0.002000 0.002000 1.000000 0.000000 0.000000 0.000000 0.500000 0.500000 0.407043 0.386114
0.219783 -0.265157 0.774926 0.002000 0.002000 0.002000 1.000000 0.000000 0.000000 0.000000 0.500000 0.500000 0.407043 0.386114
0.132284 1.022859 -1.799988 0.001997 0.002008 0.002006 0.999978 -0.000040 -0.004686 0.004800 0.500187 0.489456 0.417588 0.375572
0.355988 -0.054040 0.071278 0.002000 0.002000 0.002000 1.000000 0.000000 0.000000 0.000000 0.500000 0.500000 0.407043 0.386114
-0.805850 -0.350741 1.127979 0.002000 0.002000 0.002000 1.000000 0.000000 0.000000 0.000000 0.500000 0.500000 0.407043 0.386114
0.025866 -0.149473 0.395070 0.002000 0.002000 0.002000 1.000000 0.000000 0.000000 0.000000 0.500000 0.500000 0.407043 0.386114
1.980412 -0.446593 2.387716 0.002006 0.002006 0.002006 1.000000 0.000000 0.000000 0.000000 0.499228 0.496912 0.410131 0.383026
-0.353686 2.694866 -0.886916 0.002018 0.002007 0.002017 0.999888 0.013705 -0.000441 -0.005939 0.497943 0.495557 0.411132 0.372369
-0.277813 0.777292 -0.439233 0.002000 0.002000 0.002000 1.000000 0.000000 0.000000 0.000000 0.500000 0.500000 0.407043 0.386114
1.172910 1.397361 -0.412559 0.002000 0.002000 0.002000 1.000000 0.000000 0.000000 0.000000 0.500000 0.500000 0.407043 0.386114
0.689356 0.033526 -0.297729 0.002000 0.002000 0.002000 1.000000 0.000000 0.000000 0.000000 0.500000 0.500000 0.407043 0.386114
-1.133912 1.558530 1.330451 0.002010 0.002030 0.002024 0.999854 -0.008522 -0.010764 -0.010190 0.497006 0.494673 0.412503 0.380869
0.658883 -0.822266 -0.146325 0.002000 0.002000 0.002000 1.000000 0.000000 0.000000 0.000000 0.500000 0.500000 0.407043 0.386114
0.778886 0.640334 0.807524 0.002000 0.002000 0.002000 1.000000 0.000000 0.000000 0.000000 0.500000 0.500000 0.407043 0.386114
0.573152 1.390381 -0.235133 0.002000 0.002000 0.002000 1.000000 0.000000 0.000000 0.000000 0.500000 0.500000 0.407043 0.386114
-0.538627 -1.160732 -1.486362 0.002000 0.002000 0.002000 1.000000 0.000000 0.000000 0.000000 0.500000 0.500000 0.407043 0.386114
0.131967 1.364803 1.967332 0.002003 0.002024 0.002022 0.999978 -0.000872 0.000734 -0.006478 0.498206 0.489904 0.419552 0.376082
1.081412 0.784343 1.861551 0.002000 0.002000 0.002000 1.000000 0.000000 0.000000 0.000000 0.500000 0.500000 0.407043 0.386114
0.672796 -0.432213 1.800506 0.002000 0.002000 0.002000 1.000000 0.000000 0.000000 0.000000 0.500000 0.500000 0.407043 0.386114
1.333803 -0.318458 1.118289 0.002000 0.002000 0.002000 1.000000 0.000000 0.000000 0.000000 0.500000 0.500000 0.407043 0.386114
1.890733 0.199888 -0.178268 0.002000 0.002000 0.002000 1.000000 0.000000 0.000000 0.000000 0.500000 0.500000 0.407043 0.386114
-0.262584 0.751358 0.182786 0.002000 0.002000 0.002000 1.000000 0.000000 0.000000 0.000000 0.500000 0.500000 0.407043 0.386114
-0.997754 0.458072 0.792437 0.002000 0.002000 0.002000 1.000000 0.000000 0.000000 0.000000 0.500000 0.500000 0.407043 0.386114
-0.964348 0.465913 1.353925 0.002000 0.002000 0.002000 1.000000 0.000000 0.000000 0.000000 0.500000 0.500000 0.407043 0.386114
-1.459296 0.374694 0.746073 0.002000 0.002000 0.002000 1.000000 0.000000 0.000000 0.000000 0.500000 0.500000 0.407043 0.386114
0.265900 -1.085418 -1.508464 0.002000 0.002000 0.002000 1.000000 0.000000 0.000000 0.000000 0.500000 0.500000 0.407043 0.386114
-0.433947 0.957488 1.254128 0.002000 0.002000 0.002000 1.000000 0.000000 0.000000 0.000000 0.500000 0.500000 0.407043 0.386114
-1.038456 0.525107 -0.838329 0.002000 0.002000 0.002000 1.000000 0.000000 0.000000 0.000000 0.500000 0.500000 0.407043 0.386114
1.722790 -1.173119 0.727288 0.002000 0.002000 0.002000 1.000000 0.000000 0.000000 0.000000 0.500000 0.500000 0.407043 0.386114
-1.743484 2.373442 -1.184159 0.002025 0.002021 0.002020 0.999884 0.010312 -0.010478 0.003986 0.497178 0.500141 0.405368 0.387188
-0.205037 -0.537579 1.296782 0.002000 0.002000 0.002000 1.000000 0.000000 0.000000 0.000000 0.500000 0.500000 0.407043 0.386114
-1.613877 -0.815597 -0.150999 0.002000 0.002000 0.002000 1.000000 0.000000 0.000000 0.000000 0.500000 0.500000 0.407043 0.386114
-0.502071 0.803678 -1.133338 0.002000 0.002000 0.002000 1.000000 0.000000 0.000000 0.000000 0.500000 0.500000 0.407043 0.386114
-0.743519 -0.701343 -0.421790 0.002000 0.002000 0.002000 1.000000 0.000000 0.000000 0.000000 0.500000 0.500000 0.407043 0.386114
-1.533264 -1.934298 0.351049 0.002000 0.002000 0.002000 1.000000 0.000000 0.000000 0.000000 0.500000 0.500000 0.407043 0.386114
-0.640472 0.019136 -0.714996 0.002000 0.002000 0.002000 1.000000 0.000000 0.000000 0.000000 0.500000 0.500000 0.407043 0.386114
-0.702530 0.770027 0.939679 0.002000 0.002000 0.002000 1.000000 0.000000 0.000000 0.000000 0.500000 0.500000 0.407043 0.386114
1.082696 -0.651916 0.286331 0.002000 0.002000 0.002000 1.000000 0.000000 0.000000 0.000000 0.500000 0.500000 0.407043 0.386114
0.101457 0.097913 -0.808283 0.002000 0.002000 0.002000 1.000000 0.000000 0.000000 0.000000 0.500000 0.500000 0.407043 0.386114
1.441810 -0.646045 0.048114 0.002000 0.002000 0.002000 1.000000 0.000000 0.000000 0.000000 0.500000 0.500000 0.407043 0.386114
1.382571 -0.666576 0.787679 0.002000 0.002000 0.002000 1.000000 0.000000 0.000000 0.000000 0.500000 0.500000 0.407043 0.386114
-0.159573 -0.103031 0.274074 0.002000 0.002000 0.002000 1.000000 0.000000 0.000000 0.000000 0.500000 0.500000 0.407043 0.386114
1.157653 -0.219686 0.421547 0.002000 0.002000 0.002000 1.000000 0.000000 0.000000 0.000000 0.500000 0.500000 0.407043 0.386114
-0.329123 2.354651 -0.535250 0.002003 0.002012 0.002002 0.999986 0.003783 -0.003638 0.000430 0.499496 0.493491 0.413624 0.379644
1.054826 -0.403136 0.645443 0.002000 0.002000 0.002000 1.000000 0.000000 0.000000 0.000000 0.500000 0.500000 0.407043 0.386114
-0.631488 -1.280944 0.009233 0.002000 0.002000 0.002000 1.000000 0.000000 0.000000 0.000000 0.500000 0.500000 0.407043 0.386114
1.233005 0.623850 1.521342 0.002000 0.002000 0.002000 1.000000 0.000000 0.000000 0.000000 0.500000 0.500000 0.407043 0.386114
-0.497621 0.753561 -0.388890 0.002000 0.002000 0.002000 1.000000 0.000000 0.000000 0.000000 0.500000 0.500000 0.407043 0.386114
2.592200 0.085434 -2.030888 0.002000 0.002000 0.002000 1.000000 0.000000 0.000000 0.000000 0.500000 0.500000 0.407043 0.386114
0.646180 1.217453 0.031213 0.002000 0.002000 0.002000 1.000000 0.000000 0.000000 0.000000 0.500000 0.500000 0.407043 0.386114
1.082466 -1.899851 -2.707443 0.002000 0.002000 0.002000 1.000000 0.000000 0.000000 0.000000 0.500000 0.500000 0.407043 0.386114
-0.786773 -0.619564 1.828140 0.002000 0.002000 0.002000 1.000000 0.000000 0.000000 0.000000 0.500000 0.500000 0.407043 0.386114
0.487754 0.136679 -0.757179 0.002000 0.002000 0.002000 1.000000 0.000000 0.000000 0.000000 0.500000 0.500000 0.407043 0.386114
-1.055433 1.936924 -0.447616 0.002003 0.002008 0.002018 0.999926 -0.006728 0.010083 0.001058 0.498610 0.489669 0.410215 0.392299
0.917415 1.838912 0.183966 0.002003 0.001997 0.002016 0.999892 -0.011139 -0.007116 0.006433 0.499038 0.477868 0.430364 0.369277
0.701751 0.909908 -0.732396 0.002000 0.002000 0.002000 1.000000 0.000000 0.000000 0.000000 0.500000 0.500000 0.407043 0.386114
-0.666316 -0.327706 -1.439155 0.002000 0.002000 0.002000 1.000000 0.000000 0.000000 0.000000 0.500000 0.500000 0.407043 0.386114
-1.279747 -0.196230 0.199036 0.002000 0.002000 0.002000 1.000000 0.000000 0.000000 0.000000 0.500000 0.500000 0.407043 0.386114
-0.597148 -1.034822 0.421018 0.002000 0.002000 0.002000 1.000000 0.000000 0.000000 0.000000 0.500000 0.500000 0.407043 0.386114
-0.548948 -1.254019 -1.269619 0.002000 0.002000 0.002000 1.000000 0.000000 0.000000 0.000000 0.500000 0.500000 0.407043 0.386114
0.649234 0.234030 -0.155316 0.002000 0.002000 0.002000 1.000000 0.000000 0.000000 0.000000 0.500000 0.500000 0.407043 0.386114
-0.434474 -1.096245 -1.122981 0.002000 0.002000 0.002000 1.000000 0.000000 0.000000 0.000000 0.500000 0.500000 0.407043 0.386114
-1.865480 -2.120755 -0.671943 0.002000 0.002000 0.002000 1.000000 0.000000 0.000000 0.000000 0.500000 0.500000 0.407043 0.386114
-0.755981 -1.044982 -0.279924 0.002000 0.002000 0.002000 1.000000 0.000000 0.000000 0.000000 0.500000 0.500000 0.407043 0.386114
1.210166 -0.988520 0.350208 0.002000 0.002000 0.002000 1.000000 0.000000 0.000000 0.000000 0.500000 0.500000 0.407043 0.386114
-0.264424 -1.063166 -0.747499 0.002000 0.002000 0.002000 1.000000 0.000000 0.000000 0.000000 0.500000 0.500000 0.407043 0.386114
0.326600 -0.499297 -1.471504 0.002000 0.002000 0.002000 1.000000 0.000000 0.000000 0.000000 0.500000 0.500000 0.407043 0.386114
0.502365 0.427991 1.004039 0.002000 0.002000 0.002000 1.000000 0.000000 0.000000 0.000000 0.500000 0.500000 0.407043 0.386114
1.708235 -0.266704 -0.591020 0.002000 0.002000 0.002000 1.000000 0.000000 0.000000 0.000000 0.500000 0.500000 0.407043 0.386114
2.378820 1.207639 -0.531981 0.002017 0.002017 0.002006 0.999968 -0.005497 -0.005501 -0.001768 0.499312 0.491767 0.415287 0.383340
1.531150 0.443628 -2.457934 0.002000 0.002000 0.002000 1.000000 0.000000 0.000000 0.000000 0.500000 0.500000 0.407043 0.386114
0.649662 0.024500 0.259827 0.002000 0.002000 0.002000 1.000000 0.000000 0.000000 0.000000 0.500000 0.500000 0.407043 0.386114
0.734868 -0.006030 -0.788438 0.002000 0.002000 0.002000 1.000000 0.000000 0.000000 0.000000 0.500000 0.500000 0.407043 0.386114
1.137125 -1.736621 0.961479 0.002000 0.002000 0.002000 1.000000 0.000000 0.000000 0.000000 0.500000 0.500000 0.407043 0.386114
-0.488082 -0.656836 -0.472082 0.002000 0.002000 0.002000 1.000000 0.000000 0.000000 0.000000 0.500000 0.500000 0.407043 0.386114
0.359717 0.530751 1.007924 0.002000 0.002000 0.002000 1.000000 0.000000 0.000000 0.000000 0.500000 0.500000 0.407043 0.386114
1.627728 1.592853 -0.005388 0.002017 0.002018 0.002021 0.999955 0.008273 0.003298 0.003226 0.497225 0.493672 0.411980 0.377885
0.573236 0.372033 0.226095 0.002000 0.002000 0.002000 1.000000 0.000000 0.000000 0.000000 0.500000 0.500000 0.407043 0.386114
-0.754463 -0.337997 0.416600 0.002000 0.002000 0.002000 1.000000 0.000000 0.000000 0.000000 0.500000 0.500000 0.407043 0.386114
0.228903 0.194336 1.042365 0.002000 0.002000 0.002000 1.000000 0.000000 0.000000 0.000000 0.500000 0.500000 0.407043 0.386114
-1.125709 -0.040836 0.715936 0.002000 0.002000 0.002000 1.000000 0.000000 0.000000 0.000000 0.500000 0.500000 0.407043 0.386114
0.341807 -0.677858 0.177837 0.002000 0.002000 0.002000 1.000000 0.000000 0.000000 0.000000 0.500000 0.500000 0.407043 0.386114
-0.162098 -0.026766 -0.338008 0.002000 0.002000 0.002000 1.000000 0.000000 0.000000 0.000000 0.500000 0.500000 0.407043 0.386114
0.616030 -1.575510 -1.185627 0.002000 0.002000 0.002000 1.000000 0.000000 0.000000 0.000000 0.500000 0.500000 0.407043 0.386114
0.328118 -0.035221 0.189066 0.002000 0.002000 0.002000 1.000000 0.000000 0.000000 0.000000 0.500000 0.500000 0.407043 0.386114
1.037570 0.779364 -0.649827 0.002000 0.002000 0.002000 1.000000 0.000000 0.000000 0.000000 0.500000 0.500000 0.407043 0.386114
-0.480953 0.130587 0.835468 0.002000 0.002000 0.002000 1.000000 0.000000 0.000000 0.000000 0.500000 0.500000 0.407043 0.386114
1.612345 -0.493959 0.304561 0.002000 0.002000 0.002000 1.000000 0.000000 0.000000 0.000000 0.500000 0.500000 0.407043 0.386114
2.130624 0.026655 0.785667 0.002000 0.002000 0.002000 1.000000 0.000000 0.000000 0.000000 0.500000 0.500000 0.407043 0.386114
0.812821 0.044780 -1.743952 0.002000 0.002000 0.002000 1.000000 0.000000 0.000000 0.000000 0.500000 0.500000 0.407043 0.386114
-1.310476 -1.421892 -0.320100 0.002000 0.002000 0.002000 1.000000 0.000000 0.000000 0.000000 0.500000 0.500000 0.407043 0.386114
0.011663 0.752878 -0.884967 0.002000 0.002000 0.002000 1.000000 0.000000 0.000000 0.000000 0.500000 0.500000 0.407043 0.386114
0.898215 -1.674411 -1.144724 0.002000 0.002000 0.002000 1.000000 0.000000 0.000000 0.000000 0.500000 0.500000 0.407043 0.386114
0.223464 -0.936949 -0.175444 0.002000 0.002000 0.002000 1.000000 0.000000 0.000000 0.000000 0.500000 0.500000 0.407043 0.386114
0.835477 -1.251649 0.264348 0.002000 0.002000 0.002000 1.000000 0.000000 0.000000 0.000000 0.500000 0.500000 0.407043 0.386114
1.294954 -0.544398 2.050002 0.002000 0.002000 0.002000 1.000000 0.000000 0.000000 0.000000 0.500000 0.500000 0.407043 0.386114
0.064594 1.448186 -0.206869 0.002000 0.002000 0.002000 1.000000 0.000000 0.000000 0.000000 0.500000 0.500000 0.407043 0.386114
1.521172 -1.234106 -0.787125 0.002000 0.002000 0.002000 1.000000 0.000000 0.000000 0.000000 0.500000 0.500000 0.407043 0.386114
-0.726831 -0.260473 -0.181549 0.002000 0.002000 0.002000 1.000000 0.000000 0.000000 0.000000 0.500000 0.500000 0.407043 0.386114
0.408590 0.219128 -0.457087 0.002000 0.002000 0.002000 1.000000 0.000000 0.000000 0.000000 0.500000 0.500000 0.407043 0.386114
-0.651997 -0.321079 -0.506167 0.002000 0.002000 0.002000 1.000000 0.000000 0.000000 0.000000 0.500000 0.500000 0.407043 0.386114
0.814955 0.683613 -1.223621 0.002000 0.002000 0.002000 1.000000 0.000000 0.000000 0.000000 0.500000 0.500000 0.407043 0.386114
0.909191 -0.601543 0.852583 0.002000 0.002000 0.002000 1.000000 0.000000 0.000000 0.000000 0.500000 0.500000 0.407043 0.386114
