ply
format ascii 1.0
element vertex 373
property float x
property float y
property float z
property float scale_0
property float scale_1
property float scale_2
property float rot_0
property float rot_1
property float rot_2
property float rot_3
property float opacity
property float f_dc_0
property float f_dc_1
property float f_dc_2
end_header
0.308558 -0.461212 -1.003108 0.002000 0.002000 0.002000 1.000000 0.000000 0.000000 0.000000 0.500000 0.500000 0.407043 0.386114
-3.369499 0.783265 -0.343544 0.002000 0.002000 0.002000 1.000000 0.000000 0.000000 0.000000 0.500000 0.500000 0.407043 0.386114
0.348074 -1.718456 -0.892925 0.002000 0.002000 0.002000 1.000000 0.000000 0.000000 0.000000 0.500000 0.500000 0.407043 0.386114
-0.745671 0.150867 -0.786338 0.002000 0.002000 0.002000 1.000000 0.000000 0.000000 0.000000 0.500000 0.500000 0.407043 0.386114
-0.350765 1.251803 -0.359885 0.002000 0.002000 0.002000 1.000000 0.000000 0.000000 0.000000 0.500000 0.500000 0.407043 0.386114
-0.439945 1.987914 -0.692778 0.002000 0.002000 0.002000 1.000000 0.000000 0.000000 0.000000 0.500000 0.500000 0.407043 0.386114
0.460321 0.600921 0.806320 0.002000 0.002000 0.002000 1.000000 0.000000 0.000000 0.000000 0.500000 0.500000 0.407043 0.386114
0.979622 0.917062 -0.116663 0.002000 0.002000 0.002000 1.000000 0.000000 0.000000 0.000000 0.500000 0.500000 0.407043 0.386114
0.210620 0.522847 -1.768603 0.002000 0.002000 0.002000 1.000000 0.000000 0.000000 0.000000 0.500000 0.500000 0.407043 0.386114
-0.811737 -0.877277 -0.013254 0.002000 0.002000 0.002000 1.000000 0.000000 0.000000 0.000000 0.500000 0.500000 0.407043 0.386114
1.115386 -0.446570 1.315347 0.002000 0.002000 0.002000 1.000000 0.000000 0.000000 0.000000 0.500000 0.500000 0.407043 0.386114
1.038091 2.203390 -0.907843 0.002000 0.002000 0.002000 1.000000 0.000000 0.000000 0.000000 0.500000 0.500000 0.407043 0.386114
2.093714 -0.923997 -0.553339 0.002000 0.002000 0.002000 1.000000 0.000000 0.000000 0.000000 0.500000 0.500000 0.407043 0.386114
0.092597 1.056328 0.835701 0.002000 0.002000 0.002000 1.000000 0.000000 0.000000 0.000000 0.500000 0.500000 0.407043 0.386114
0.399630 -0.522429 1.807686 0.002000 0.002000 0.002000 1.000000 0.000000 0.000000 0.000000 0.500000 0.500000 0.407043 0.386114
-0.132084 -1.092994 -2.486012 0.002000 0.002000 0.002000 1.000000 0.000000 0.000000 0.000000 0.500000 0.500000 0.407043 0.386114
-0.038850 0.802104 -0.185474 0.002000 0.002000 0.002000 1.000000 0.000000 0.000000 0.000000 0.500000 0.500000 0.407043 0.386114
0.534230 -0.498106 0.896393 0.002000 0.002000 0.002000 1.000000 0.000000 0.000000 0.000000 0.500000 0.500000 0.407043 0.386114
-1.269173 0.042281 0.968098 0.002000 0.002000 0.002000 1.000000 0.000000 0.000000 0.000000 0.500000 0.500000 0.407043 0.386114
-1.760828 1.098093 0.857938 0.002000 0.002000 0.002000 1.000000 0.000000 0.000000 0.000000 0.500000 0.500000 0.407043 0.386114
-0.956289 -0.046786 -0.690827 0.002000 0.002000 0.002000 1.000000 0.000000 0.000000 0.000000 0.500000 0.500000 0.407043 0.386114
-0.388573 0.045911 -0.379490 0.002000 0.002000 0.002000 1.000000 0.000000 0.000000 0.000000 0.500000 0.500000 0.407043 0.386114
1.577022 -0.042833 1.353957 0.002000 0.002000 0.002000 1.000000 0.000000 0.000000 0.000000 0.500000 0.500000 0.407043 0.386114
-1.124684 -0.178639 0.204127 0.002000 0.002000 0.002000 1.000000 0.000000 0.000000 0.000000 0.500000 0.500000 0.407043 0.386114
0.927393 -0.324384 0.685102 0.002000 0.002000 0.002000 1.000000 0.000000 0.000000 0.000000 0.500000 0.500000 0.407043 0.386114
1.072230 -1.000273 0.970183 0.002000 0.002000 0.002000 1.000000 0.000000 0.000000 0.000000 0.500000 0.500000 0.407043 0.386114
-1.724406 1.617341 -0.929860 0.002000 0.002000 0.002000 1.000000 0.000000 0.000000 0.000000 0.500000 0.500000 0.407043 0.386114
0.419421 2.068053 -1.234256 0.002000 0.002000 0.002000 1.000000 0.000000 0.000000 0.000000 0.500000 0.500000 0.407043 0.386114
2.678502 0.300430 -1.303833 0.002000 0.002000 0.002000 1.000000 0.000000 0.000000 0.000000 0.500000 0.500000 0.407043 0.386114
0.751219 0.372937 0.171400 0.002000 0.002000 0.002000 1.000000 0.000000 0.000000 0.000000 0.500000 0.500000 0.407043 0.386114
0.599582 -0.197263 -0.118917 0.002000 0.002000 0.002000 1.000000 0.000000 0.000000 0.000000 0.500000 0.500000 0.407043 0.386114
0.973745 1.072775 -1.026492 0.002000 0.002000 0.002000 1.000000 0.000000 0.000000 0.000000 0.500000 0.500000 0.407043 0.386114
-1.130291 -0.290895 -1.686725 0.002000 0.002000 0.002000 1.000000 0.000000 0.000000 0.000000 0.500000 0.500000 0.407043 0.386114
1.560081 1.840577 -0.773014 0.002000 0.002000 0.002000 1.000000 0.000000 0.000000 0.000000 0.500000 0.500000 0.407043 0.386114
-0.241335 2.390244 -0.548399 0.002000 0.002000 0.002000 1.000000 0.000000 0.000000 0.000000 0.500000 0.500000 0.407043 0.386114
0.643738 0.749558 -1.205327 0.002000 0.002000 0.002000 1.000000 0.000000 0.000000 0.000000 0.500000 0.500000 0.407043 0.386114
1.426487 -0.723615 0.279341 0.002000 0.002000 0.002000 1.000000 0.000000 0.000000 0.000000 0.500000 0.500000 0.407043 0.386114
-0.866260 0.845934 0.611639 0.002000 0.002000 0.002000 1.000000 0.000000 0.000000 0.000000 0.500000 0.500000 0.407043 0.386114
-0.808980 -0.200301 -2.403559 0.002000 0.002000 0.002000 1.000000 0.000000 0.000000 0.000000 0.500000 0.500000 0.407043 0.386114
1.563342 -0.629462 0.804292 0.002000 0.002000 0.002000 1.000000 0.000000 0.000000 0.000000 0.500000 0.500000 0.407043 0.386114
0.667614 -0.518146 0.953996 0.002000 0.002000 0.002000 1.000000 0.000000 0.000000 0.000000 0.500000 0.500000 0.407043 0.386114
0.725616 -0.576800 -0.801158 0.002000 0.002000 0.002000 1.000000 0.000000 0.000000 0.000000 0.500000 0.500000 0.407043 0.386114
-1.122711 -0.782424 -0.512294 0.002000 0.002000 0.002000 1.000000 0.000000 0.000000 0.000000 0.500000 0.500000 0.407043 0.386114
-0.824234 -1.023420 -1.392834 0.002000 0.002000 0.002000 1.000000 0.000000 0.000000 0.000000 0.500000 0.500000 0.407043 0.386114
-0.409752 0.850980 0.888195 0.002000 0.002000 0.002000 1.000000 0.000000 0.000000 0.000000 0.500000 0.500000 0.407043 0.386114
0.582795 0.785405 1.513689 0.002000 0.002000 0.002000 1.000000 0.000000 0.000000 0.000000 0.500000 0.500000 0.407043 0.386114
1.251064 -1.937214 -1.205105 0.002000 0.002000 0.002000 1.000000 0.000000 0.000000 0.000000 0.500000 0.500000 0.407043 0.386114
-1.038871 -0.143171 1.129864 0.002000 0.002000 0.002000 1.000000 0.000000 0.000000 0.000000 0.500000 0.500000 0.407043 0.386114
0.587632 0.020525 0.124788 0.002000 0.002000 0.002000 1.000000 0.000000 0.000000 0.000000 0.500000 0.500000 0.407043 0.386114
0.255086 -0.401790 -1.780640 0.002000 0.002000 0.002000 1.000000 0.000000 0.000000 0.000000 0.500000 0.500000 0.407043 0.386114
-0.080951 -1.759869 0.820907 0.002000 0.002000 0.002000 1.000000 0.000000 0.000000 0.000000 0.500000 0.500000 0.407043 0.386114
-0.150083 -1.868658 -0.650350 0.002000 0.002000 0.002000 1.000000 0.000000 0.000000 0.000000 0.500000 0.500000 0.407043 0.386114
0.693446 -1.108100 -0.147279 0.002000 0.002000 0.002000 1.000000 0.000000 0.000000 0.000000 0.500000 0.500000 0.407043 0.386114
-2.246403 0.402766 0.103582 0.002000 0.002000 0.002000 1.000000 0.000000 0.000000 0.000000 0.500000 0.500000 0.407043 0.386114
0.312508 0.193598 -0.403044 0.002000 0.002000 0.002000 1.000000 0.000000 0.000000 0.000000 0.500000 0.500000 0.407043 0.386114
0.728468 1.435918 -1.437018 0.002000 0.002000 0.002000 1.000000 0.000000 0.000000 0.000000 0.500000 0.500000 0.407043 0.386114
0.523925 -0.269816 0.017309 0.002000 0.002000 0.002000 1.000000 0.000000 0.000000 0.000000 0.500000 0.500000 0.407043 0.386114
1.277874 -0.305297 -0.012963 0.002000 0.002000 0.002000 1.000000 0.000000 0.000000 0.000000 0.500000 0.500000 0.407043 0.386114
1.342580 0.859561 0.244035 0.002000 0.002000 0.002000 1.000000 0.000000 0.000000 0.000000 0.500000 0.500000 0.407043 0.386114
1.976952 0.532752 -0.878807 0.002000 0.002000 0.002000 1.000000 0.000000 0.000000 0.000000 0.500000 0.500000 0.407043 0.386114
-0.260900 -0.127723 -0.387011 0.002000 0.002000 0.002000 1.000000 0.000000 0.000000 0.000000 0.500000 0.500000 0.407043 0.386114
-0.108758 0.713503 0.037006 0.002000 0.002000 0.002000 1.000000 0.000000 0.000000 0.000000 0.500000 0.500000 0.407043 0.386114
0.736768 -1.073969 -0.815596 0.002000 0.002000 0.002000 1.000000 0.000000 0.000000 0.000000 0.500000 0.500000 0.407043 0.386114
1.198222 -1.376951 1.067083 0.002000 0.002000 0.002000 1.000000 0.000000 0.000000 0.000000 0.500000 0.500000 0.407043 0.386114
0.507301 0.476444 0.910067 0.002000 0.002000 0.002000 1.000000 0.000000 0.000000 0.000000 0.500000 0.500000 0.407043 0.386114
-1.501095 -0.113352 -1.200142 0.002000 0.002000 0.002000 1.000000 0.000000 0.000000 0.000000 0.500000 0.500000 0.407043 0.386114
-0.793399 -2.730976 -0.014750 0.002000 0.002000 0.002000 1.000000 0.000000 0.000000 0.000000 0.500000 0.500000 0.407043 0.386114
-0.040016 -0.114949 1.458335 0.002000 0.002000 0.002000 1.000000 0.000000 0.000000 0.000000 0.500000 0.500000 0.407043 0.386114
0.483625 1.408458 -2.269086 0.002000 0.002000 0.002000 1.000000 0.000000 0.000000 0.000000 0.500000 0.500000 0.407043 0.386114
0.392560 -0.426642 0.364916 0.002000 0.002000 0.002000 1.000000 0.000000 0.000000 0.000000 0.500000 0.500000 0.407043 0.386114
0.807182 -1.560238 -0.055707 0.002000 0.002000 0.002000 1.000000 0.000000 0.000000 0.000000 0.500000 0.500000 0.407043 0.386114
-0.712528 0.262950 1.132527 0.002000 0.002000 0.002000 1.000000 0.000000 0.000000 0.000000 0.500000 0.500000 0.407043 0.386114
0.882809 0.976368 0.352554 0.002000 0.002000 0.002000 1.000000 0.000000 0.000000 0.000000 0.500000 0.500000 0.407043 0.386114
-0.510327 0.048220 0.778821 0.002000 0.002000 0.002000 1.000000 0.000000 0.000000 0.000000 0.500000 0.500000 0.407043 0.386114
-0.084266 0.846056 1.185620 0.002000 0.002000 0.002000 1.000000 0.000000 0.000000 0.000000 0.500000 0.500000 0.407043 0.386114
-0.446535 0.804502 0.830817 0.002000 0.002000 0.002000 1.000000 0.000000 0.000000 0.000000 0.500000 0.500000 0.407043 0.386114
-0.411653 -0.195284 1.031825 0.002000 0.002000 0.002000 1.000000 0.000000 0.000000 0.000000 0.500000 0.500000 0.407043 0.386114
-0.641996 -1.068763 -0.038085 0.002000 0.002000 0.002000 1.000000 0.000000 0.000000 0.000000 0.500000 0.500000 0.407043 0.386114
-0.832298 0.817879 0.148091 0.002000 0.002000 0.002000 1.000000 0.000000 0.000000 0.000000 0.500000 0.500000 0.407043 0.386114
0.368892 0.523268 -1.135805 0.002000 0.002000 0.002000 1.000000 0.000000 0.000000 0.000000 0.500000 0.500000 0.407043 0.386114
2.014529 -0.577839 -0.218757 0.002000 0.002000 0.002000 1.000000 0.000000 0.000000 0.000000 0.500000 0.500000 0.407043 0.386114
0.355670 0.751074 0.217192 0.002000 0.002000 0.002000 1.000000 0.000000 0.000000 0.000000 0.500000 0.500000 0.407043 0.386114
0.401939 0.925024 -0.249319 0.002000 0.002000 0.002000 1.000000 0.000000 0.000000 0.000000 0.500000 0.500000 0.407043 0.386114
-0.347307 0.812222 -0.607883 0.002000 0.002000 0.002000 1.000000 0.000000 0.000000 0.000000 0.500000 0.500000 0.407043 0.386114
-0.809664 1.702486 -0.968380 0.002000 0.002000 0.002000 1.000000 0.000000 0.000000 0.000000 0.500000 0.500000 0.407043 0.386114
1.086438 1.866101 1.496228 0.002000 0.002000 0.002000 1.000000 0.000000 0.000000 0.000000 0.500000 0.500000 0.407043 0.386114
1.022226 1.548564 -0.088560 0.002000 0.002000 0.002000 1.000000 0.000000 0.000000 0.000000 0.500000 0.500000 0.407043 0.386114
-0.887878 -0.683548 -0.015077 0.002000 0.002000 0.002000 1.000000 0.000000 0.000000 0.000000 0.500000 0.500000 0.407043 0.386114
-0.030385 -0.830688 -1.783517 0.002000 0.002000 0.002000 1.000000 0.000000 0.000000 0.000000 0.500000 0.500000 0.407043 0.386114
-1.239241 0.937404 -0.832045 0.002000 0.002000 0.002000 1.000000 0.000000 0.000000 0.000000 0.500000 0.500000 0.407043 0.386114
0.913355 0.355300 1.598181 0.002000 0.002000 0.002000 1.000000 0.000000 0.000000 0.000000 0.500000 0.500000 0.407043 0.386114
0.684844 -0.238090 -0.800381 0.002000 0.002000 0.002000 1.000000 0.000000 0.000000 0.000000 0.500000 0.500000 0.407043 0.386114
0.229746 -0.190796 -0.364820 0.002000 0.002000 0.002000 1.000000 0.000000 0.000000 0.000000 0.500000 0.500000 0.407043 0.386114
-0.658343 -1.219002 -1.055260 0.002000 0.002000 0.002000 1.000000 0.000000 0.000000 0.000000 0.500000 0.500000 0.407043 0.386114
-0.937064 0.072606 0.245001 0.002000 0.002000 0.002000 1.000000 0.000000 0.000000 0.000000 0.500000 0.500000 0.407043 0.386114
-1.473290 -0.103551 -0.556457 0.002000 0.002000 0.002000 1.000000 0.000000 0.000000 0.000000 0.500000 0.500000 0.407043 0.386114
0.303989 0.903524 0.598054 0.002000 0.002000 0.002000 1.000000 0.000000 0.000000 0.000000 0.500000 0.500000 0.407043 0.386114
-1.417605 -0.056002 -1.368788 0.002000 0.002000 0.002000 1.000000 0.000000 0.000000 0.000000 0.500000 0.500000 0.407043 0.386114
-0.556762 -0.367391 1.523079 0.002000 0.002000 0.002000 1.000000 0.000000 0.000000 0.000000 0.500000 0.500000 0.407043 0.386114
1.470842 -0.436686 -1.175040 0.002000 0.002000 0.002000 1.000000 0.000000 0.000000 0.000000 0.500000 0.500000 0.407043 0.386114
0.249091 -0.416377 -0.912946 0.002000 0.002000 0.002000 1.000000 0.000000 0.000000 0.000000 0.500000 0.500000 0.407043 0.386114
-1.023198 0.159739 1.559656 0.002000 0.002000 0.002000 1.000000 0.000000 0.000000 0.000000 0.500000 0.500000 0.407043 0.386114
0.201228 0.913512 -0.751940 0.002000 0.002000 0.002000 1.000000 0.000000 0.000000 0.000000 0.500000 0.500000 0.407043 0.386114
2.795886 0.416751 0.003312 0.002000 0.002000 0.002000 1.000000 0.000000 0.000000 0.000000 0.500000 0.500000 0.407043 0.386114
-1.398555 1.589942 -0.780625 0.002000 0.002000 0.002000 1.000000 0.000000 0.000000 0.000000 0.500000 0.500000 0.407043 0.386114
-0.749599 0.281440 -0.128842 0.002000 0.002000 0.002000 1.000000 0.000000 0.000000 0.000000 0.500000 0.500000 0.407043 0.386114
0.938871 0.291992 1.747863 0.002000 0.002000 0.002000 1.000000 0.000000 0.000000 0.000000 0.500000 0.500000 0.407043 0.386114
-0.814564 0.924702 -1.552940 0.002000 0.002000 0.002000 1.000000 0.000000 0.000000 0.000000 0.500000 0.500000 0.407043 0.386114
0.139432 1.094584 1.034962 0.002000 0.002000 0.002000 1.000000 0.000000 0.000000 0.000000 0.500000 0.500000 0.407043 0.386114
0.032509 0.996750 0.632736 0.002000 0.002000 0.002000 1.000000 0.000000 0.000000 0.000000 0.500000 0.500000 0.407043 0.386114
0.783145 0.509833 1.563301 0.002000 0.002000 0.002000 1.000000 0.000000 0.000000 0.000000 0.500000 0.500000 0.407043 0.386114
1.690338 1.871200 1.294047 0.002000 0.002000 0.002000 1.000000 0.000000 0.000000 0.000000 0.500000 0.500000 0.407043 0.386114
0.499420 -0.533187 -0.266456 0.002000 0.002000 0.002000 1.000000 0.000000 0.000000 0.000000 0.500000 0.500000 0.407043 0.386114
0.393254 0.454223 0.448770 0.002000 0.002000 0.002000 1.000000 0.000000 0.000000 0.000000 0.500000 0.500000 0.407043 0.386114
-0.434733 1.858336 0.358278 0.002000 0.002000 0.002000 1.000000 0.000000 0.000000 0.000000 0.500000 0.500000 0.407043 0.386114
0.184502 1.472188 0.905695 0.002000 0.002000 0.002000 1.000000 0.000000 0.000000 0.000000 0.500000 0.500000 0.407043 0.386114
-2.005184 1.852762 -1.680544 0.002000 0.002000 0.002000 1.000000 0.000000 0.000000 0.000000 0.500000 0.500000 0.407043 0.386114
0.659867 -0.532619 0.551563 0.002000 0.002000 0.002000 1.000000 0.000000 0.000000 0.000000 0.500000 0.500000 0.407043 0.386114
1.646242 0.225953 0.273576 0.002000 0.002000 0.002000 1.000000 0.000000 0.000000 0.000000 0.500000 0.500000 0.407043 0.386114
-0.955625 0.435142 -1.100557 0.002000 0.002000 0.002000 1.000000 0.000000 0.000000 0.000000 0.500000 0.500000 0.407043 0.386114
0.913084 -0.459597 2.190128 0.002000 0.002000 0.002000 1.000000 0.000000 0.000000 0.000000 0.500000 0.500000 0.407043 0.386114
-0.682377 -0.228776 -0.087368 0.002000 0.002000 0.002000 1.000000 0.000000 0.000000 0.000000 0.500000 0.500000 0.407043 0.386114
-1.119190 -0.414025 0.293368 0.002000 0.002000 0.002000 1.000000 0.000000 0.000000 0.000000 0.500000 0.500000 0.407043 0.386114
-0.016589 0.472922 1.047924 0.002000 0.002000 0.002000 1.000000 0.000000 0.000000 0.000000 0.500000 0.500000 0.407043 0.386114
0.321062 1.162279 1.519878 0.002000 0.002000 0.002000 1.000000 0.000000 0.000000 0.000000 0.500000 0.500000 0.407043 0.386114
1.134521 0.013783 1.593381 0.002000 0.002000 0.002000 1.000000 0.000000 0.000000 0.000000 0.500000 0.500000 0.407043 0.386114
0.111067 0.593305 0.002342 0.002000 0.002000 0.002000 1.000000 0.000000 0.000000 0.000000 0.500000 0.500000 0.407043 0.386114
-0.462837 0.149760 0.690178 0.002000 0.002000 0.002000 1.000000 0.000000 0.000000 0.000000 0.500000 0.500000 0.407043 0.386114
-0.382196 0.487894 0.045184 0.002000 0.002000 0.002000 1.000000 0.000000 0.000000 0.000000 0.500000 0.500000 0.407043 0.386114
1.996935 -0.695525 0.512066 0.002000 0.002000 0.002000 1.000000 0.000000 0.000000 0.000000 0.500000 0.500000 0.407043 0.386114
-0.979531 2.352171 0.418133 0.002000 0.002000 0.002000 1.000000 0.000000 0.000000 0.000000 0.500000 0.500000 0.407043 0.386114
-0.130882 -0.439449 1.697618 0.002000 0.002000 0.002000 1.000000 0.000000 0.000000 0.000000 0.500000 0.500000 0.407043 0.386114
0.813542 -1.232080 1.510047 0.002000 0.002000 0.002000 1.000000 0.000000 0.000000 0.000000 0.500000 0.500000 0.407043 0.386114
-0.495530 -1.451596 1.130424 0.002000 0.002000 0.002000 1.000000 0.000000 0.000000 0.000000 0.500000 0.500000 0.407043 0.386114
-0.236059 -1.409909 0.033968 0.002000 0.002000 0.002000 1.000000 0.000000 0.000000 0.000000 0.500000 0.500000 0.407043 0.386114
-0.273856 0.052069 0.619498 0.002000 0.002000 0.002000 1.000000 0.000000 0.000000 0.000000 0.500000 0.500000 0.407043 0.386114
1.299379 0.374111 0.290608 0.002000 0.002000 0.002000 1.000000 0.000000 0.000000 0.000000 0.500000 0.500000 0.407043 0.386114
-0.149296 0.168238 0.737079 0.002000 0.002000 0.002000 1.000000 0.000000 0.000000 0.000000 0.500000 0.500000 0.407043 0.386114
-1.690213 0.305143 -0.090921 0.002000 0.002000 0.002000 1.000000 0.000000 0.000000 0.000000 0.500000 0.500000 0.407043 0.386114
-1.158645 -0.748154 1.112181 0.002000 0.002000 0.002000 1.000000 0.000000 0.000000 0.000000 0.500000 0.500000 0.407043 0.386114
-0.442156 1.071966 0.176918 0.002000 0.002000 0.002000 1.000000 0.000000 0.000000 0.000000 0.500000 0.500000 0.407043 0.386114
-1.242721 0.101290 0.193720 0.002000 0.002000 0.002000 1.000000 0.000000 0.000000 0.000000 0.500000 0.500000 0.407043 0.386114
0.240584 0.905764 0.112221 0.002000 0.002000 0.002000 1.000000 0.000000 0.000000 0.000000 0.500000 0.500000 0.407043 0.386114
0.927545 0.187173 1.054999 0.002000 0.002000 0.002000 1.000000 0.000000 0.000000 0.000000 0.500000 0.500000 0.407043 0.386114
-0.046484 1.623020 0.934591 0.002000 0.002000 0.002000 1.000000 0.000000 0.000000 0.000000 0.500000 0.500000 0.407043 0.386114
0.680455 2.236726 -0.685889 0.002000 0.002000 0.002000 1.000000 0.000000 0.000000 0.000000 0.500000 0.500000 0.407043 0.386114
-1.308878 -1.208367 -1.446111 0.002000 0.002000 0.002000 1.000000 0.000000 0.000000 0.000000 0.500000 0.500000 0.407043 0.386114
-0.619275 -0.404787 0.452929 0.002000 0.002000 0.002000 1.000000 0.000000 0.000000 0.000000 0.500000 0.500000 0.407043 0.386114
0.409460 -0.608742 0.983269 0.002000 0.002000 0.002000 1.000000 0.000000 0.000000 0.000000 0.500000 0.500000 0.407043 0.386114
2.428080 1.144029 -0.101146 0.002000 0.002000 0.002000 1.000000 0.000000 0.000000 0.000000 0.500000 0.500000 0.407043 0.386114
0.099174 0.381459 1.672326 0.002000 0.002000 0.002000 1.000000 0.000000 0.000000 0.000000 0.500000 0.500000 0.407043 0.386114
-0.424095 1.819965 -0.393973 0.002000 0.002000 0.002000 1.000000 0.000000 0.000000 0.000000 0.500000 0.500000 0.407043 0.386114
-0.460878 0.518662 0.778419 0.002000 0.002000 0.002000 1.000000 0.000000 0.000000 0.000000 0.500000 0.500000 0.407043 0.386114
-1.590897 1.987795 1.794592 0.002000 0.002000 0.002000 1.000000 0.000000 0.000000 0.000000 0.500000 0.500000 0.407043 0.386114
-0.842764 -0.776124 0.706520 0.002000 0.002000 0.002000 1.000000 0.000000 0.000000 0.000000 0.500000 0.500000 0.407043 0.386114
0.020996 -0.714811 -0.218179 0.002000 0.002000 0.002000 1.000000 0.000000 0.000000 0.000000 0.500000 0.500000 0.407043 0.386114
0.654565 -1.328890 -0.555241 0.002000 0.002000 0.002000 1.000000 0.000000 0.000000 0.000000 0.500000 0.500000 0.407043 0.386114
0.869994 0.176242 0.104799 0.002000 0.002000 0.002000 1.000000 0.000000 0.000000 0.000000 0.500000 0.500000 0.407043 0.386114
1.178278 -0.853928 0.187013 0.002000 0.002000 0.002000 1.000000 0.000000 0.000000 0.000000 0.500000 0.500000 0.407043 0.386114
-0.059363 -2.407852 -1.230418 0.002000 0.002000 0.002000 1.000000 0.000000 0.000000 0.000000 0.500000 0.500000 0.407043 0.386114
-0.026510 0.886187 -0.728708 0.002000 0.002000 0.002000 1.000000 0.000000 0.000000 0.000000 0.500000 0.500000 0.407043 0.386114
1.380319 0.668419 -1.762409 0.002000 0.002000 0.002000 1.000000 0.000000 0.000000 0.000000 0.500000 0.500000 0.407043 0.386114
0.629207 -0.782874 -0.080225 0.002000 0.002000 0.002000 1.000000 0.000000 0.000000 0.000000 0.500000 0.500000 0.407043 0.386114
0.938380 -0.421029 -0.491486 0.002000 0.002000 0.002000 1.000000 0.000000 0.000000 0.000000 0.500000 0.500000 0.407043 0.386114
-0.930652 0.965630 0.462511 0.002000 0.002000 0.002000 1.000000 0.000000 0.000000 0.000000 0.500000 0.500000 0.407043 0.386114
-1.420814 0.250744 -0.570204 0.002000 0.002000 0.002000 1.000000 0.000000 0.000000 0.000000 0.500000 0.500000 0.407043 0.386114
-0.053947 -0.730684 -1.034664 0.002000 0.002000 0.002000 1.000000 0.000000 0.000000 0.000000 0.500000 0.500000 0.407043 0.386114
0.763143 0.921083 -0.659321 0.002000 0.002000 0.002000 1.000000 0.000000 0.000000 0.000000 0.500000 0.500000 0.407043 0.386114
0.248093 0.731166 2.328894 0.002000 0.002000 0.002000 1.000000 0.000000 0.000000 0.000000 0.500000 0.500000 0.407043 0.386114
-1.062030 -0.538569 0.024974 0.002000 0.002000 0.002000 1.000000 0.000000 0.000000 0.000000 0.500000 0.500000 0.407043 0.386114
-0.430021 1.017188 -0.548503 0.002000 0.002000 0.002000 1.000000 0.000000 0.000000 0.000000 0.500000 0.500000 0.407043 0.386114
1.608386 0.586327 0.157589 0.002000 0.002000 0.002000 1.000000 0.000000 0.000000 0.000000 0.500000 0.500000 0.407043 0.386114
-0.982811 0.184782 1.415096 0.002000 0.002000 0.002000 1.000000 0.000000 0.000000 0.000000 0.500000 0.500000 0.407043 0.386114
0.423052 0.543448 -1.211638 0.002000 0.002000 0.002000 1.000000 0.000000 0.000000 0.000000 0.500000 0.500000 0.407043 0.386114
0.175737 0.254995 0.807003 0.002000 0.002000 0.002000 1.000000 0.000000 0.000000 0.000000 0.500000 0.500000 0.407043 0.386114
-0.307795 1.316413 0.771924 0.002000 0.002000 0.002000 1.000000 0.000000 0.000000 0.000000 0.500000 0.500000 0.407043 0.386114
2.004680 -0.051543 -0.090193 0.002000 0.002000 0.002000 1.000000 0.000000 0.000000 0.000000 0.500000 0.500000 0.407043 0.386114
0.958540 -1.227564 0.354323 0.002000 0.002000 0.002000 1.000000 0.000000 0.000000 0.000000 0.500000 0.500000 0.407043 0.386114
-0.260497 0.654157 -0.438905 0.002000 0.002000 0.002000 1.000000 0.000000 0.000000 0.000000 0.500000 0.500000 0.407043 0.386114
-0.059303 -1.202606 -1.276945 0.002000 0.002000 0.002000 1.000000 0.000000 0.000000 0.000000 0.500000 0.500000 0.407043 0.386114
-0.396835 -1.267334 -0.690220 0.002000 0.002000 0.002000 1.000000 0.000000 0.000000 0.000000 0.500000 0.500000 0.407043 0.386114
0.239234 1.403940 -2.028285 0.002000 0.002000 0.002000 1.000000 0.000000 0.000000 0.000000 0.500000 0.500000 0.407043 0.386114
-1.027560 0.976141 -0.067437 0.002000 0.002000 0.002000 1.000000 0.000000 0.000000 0.000000 0.500000 0.500000 0.407043 0.386114
0.065868 -0.735282 0.194502 0.002000 0.002000 0.002000 1.000000 0.000000 0.000000 0.000000 0.500000 0.500000 0.407043 0.386114
-0.713458 0.168181 -1.188864 0.002000 0.002000 0.002000 1.000000 0.000000 0.000000 0.000000 0.500000 0.500000 0.407043 0.386114
-0.378751 -0.321154 0.412762 0.002000 0.002000 0.002000 1.000000 0.000000 0.000000 0.000000 0.500000 0.500000 0.407043 0.386114
0.339039 1.773472 1.655670 0.002000 0.002000 0.002000 1.000000 0.000000 0.000000 0.000000 0.500000 0.500000 0.407043 0.386114
-0.080704 -0.303116 0.324055 0.002000 0.002000 0.002000 1.000000 0.000000 0.000000 0.000000 0.500000 0.500000 0.407043 0.386114
1.040147 0.591558 -1.480383 0.002000 0.002000 0.002000 1.000000 0.000000 0.000000 0.000000 0.500000 0.500000 0.407043 0.386114
-0.120408 0.164380 0.780698 0.002000 0.002000 0.002000 1.000000 0.000000 0.000000 0.000000 0.500000 0.500000 0.407043 0.386114
1.228264 0.445370 -0.302392 0.002000 0.002000 0.002000 1.000000 0.000000 0.000000 0.000000 0.500000 0.500000 0.407043 0.386114
-0.115875 0.451075 -0.360095 0.002000 0.002000 0.002000 1.000000 0.000000 0.000000 0.000000 0.500000 0.500000 0.407043 0.386114
-1.025239 0.374299 -0.379149 0.002000 0.002000 0.002000 1.000000 0.000000 0.000000 0.000000 0.500000 0.500000 0.407043 0.386114
2.650177 -1.603153 -0.477654 0.002000 0.002000 0.002000 1.000000 0.000000 0.000000 0.000000 0.500000 0.500000 0.407043 0.386114
-0.584563 -0.217242 -0.573197 0.002000 0.002000 0.002000 1.000000 0.000000 0.000000 0.000000 0.500000 0.500000 0.407043 0.386114
0.371760 -0.461056 2.174776 0.002000 0.002000 0.002000 1.000000 0.000000 0.000000 0.000000 0.500000 0.500000 0.407043 0.386114
0.021914 0.585774 -0.344199 0.002000 0.002000 0.002000 1.000000 0.000000 0.000000 0.000000 0.500000 0.500000 0.407043 0.386114
0.681443 0.772460 0.007648 0.002000 0.002000 0.002000 1.000000 0.000000 0.000000 0.000000 0.500000 0.500000 0.407043 0.386114
-0.251540 0.843893 -0.262139 0.002000 0.002000 0.002000 1.000000 0.000000 0.000000 0.000000 0.500000 0.500000 0.407043 0.386114
-0.424341 -0.608053 0.011438 0.002000 0.002000 0.002000 1.000000 0.000000 0.000000 0.000000 0.500000 0.500000 0.407043 0.386114
0.001197 0.672935 -0.671217 0.002000 0.002000 0.002000 1.000000 0.000000 0.000000 0.000000 0.500000 0.500000 0.407043 0.386114
-0.229999 0.139609 1.354401 0.002000 0.002000 0.002000 1.000000 0.000000 0.000000 0.000000 0.500000 0.500000 0.407043 0.386114
-0.423284 -0.997488 -0.990227 0.002000 0.002000 0.002000 1.000000 0.000000 0.000000 0.000000 0.500000 0.500000 0.407043 0.386114
-0.140700 0.816661 1.078919 0.002000 0.002000 0.002000 1.000000 0.000000 0.000000 0.000000 0.500000 0.500000 0.407043 0.386114
1.725300 1.166022 0.586838 0.002000 0.002000 0.002000 1.000000 0.000000 0.000000 0.000000 0.500000 0.500000 0.407043 0.386114
-0.118776 -0.342785 -0.082405 0.002000 0.002000 0.002000 1.000000 0.000000 0.000000 0.000000 0.500000 0.500000 0.407043 0.386114
0.854295 -0.914926 0.538833 0.002000 0.002000 0.002000 1.000000 0.000000 0.000000 0.000000 0.500000 0.500000 0.407043 0.386114
-0.779645 1.152394 -0.431249 0.002000 0.002000 0.002000 1.000000 0.000000 0.000000 0.000000 0.500000 0.500000 0.407043 0.386114
0.480455 -0.003758 -0.237228 0.002000 0.002000 0.002000 1.000000 0.000000 0.000000 0.000000 0.500000 0.500000 0.407043 0.386114
0.175388 -0.341666 -0.427143 0.002000 0.002000 0.002000 1.000000 0.000000 0.000000 0.000000 0.500000 0.500000 0.407043 0.386114
1.199122 0.868903 -0.607364 0.002000 0.002000 0.002000 1.000000 0.000000 0.000000 0.000000 0.500000 0.500000 0.407043 0.386114
0.116165 1.914237 -1.145043 0.002000 0.002000 0.002000 1.000000 0.000000 0.000000 0.000000 0.500000 0.500000 0.407043 0.386114
1.609059 0.197424 -0.760387 0.002000 0.002000 0.002000 1.000000 0.000000 0.000000 0.000000 0.500000 0.500000 0.407043 0.386114
-0.693874 -1.080847 -0.064857 0.002000 0.002000 0.002000 1.000000 0.000000 0.000000 0.000000 0.500000 0.500000 0.407043 0.386114
-0.010433 1.208446 -0.901046 0.002000 0.002000 0.002000 1.000000 0.000000 0.000000 0.000000 0.500000 0.500000 0.407043 0.386114
-1.305283 -0.125434 1.280875 0.002000 0.002000 0.002000 1.000000 0.000000 0.000000 0.000000 0.500000 0.500000 0.407043 0.386114
0.657739 0.462020 -0.507246 0.002000 0.002000 0.002000 1.000000 0.000000 0.000000 0.000000 0.500000 0.500000 0.407043 0.386114
-0.918021 0.088449 0.625168 0.002000 0.002000 0.002000 1.000000 0.000000 0.000000 0.000000 0.500000 0.500000 0.407043 0.386114
-1.836693 -0.458549 0.496103 0.002000 0.002000 0.002000 1.000000 0.000000 0.000000 0.000000 0.500000 0.500000 0.407043 0.386114
-0.852497 -0.192413 0.470622 0.002000 0.002000 0.002000 1.000000 0.000000 0.000000 0.000000 0.500000 0.500000 0.407043 0.386114
-0.707529 0.019301 0.742115 0.002000 0.002000 0.002000 1.000000 0.000000 0.000000 0.000000 0.500000 0.500000 0.407043 0.386114
-2.129992 -1.851965 -0.789727 0.002000 0.002000 0.002000 1.000000 0.000000 0.000000 0.000000 0.500000 0.500000 0.407043 0.386114
-1.383300 -1.126594 0.491716 0.002000 0.002000 0.002000 1.000000 0.000000 0.000000 0.000000 0.500000 0.500000 0.407043 0.386114
-1.688096 -1.056651 -0.337599 0.002000 0.002000 0.002000 1.000000 0.000000 0.000000 0.000000 0.500000 0.500000 0.407043 0.386114
-0.278816 -0.378376 -0.229631 0.002000 0.002000 0.002000 1.000000 0.000000 0.000000 0.000000 0.500000 0.500000 0.407043 0.386114
-1.183174 -1.034788 -0.808378 0.002000 0.002000 0.002000 1.000000 0.000000 0.000000 0.000000 0.500000 0.500000 0.407043 0.386114
-0.477712 0.816069 0.807688 0.002000 0.002000 0.002000 1.000000 0.000000 0.000000 0.000000 0.500000 0.500000 0.407043 0.386114
0.569852 -0.437471 -0.711855 0.002000 0.002000 0.002000 1.000000 0.000000 0.000000 0.000000 0.500000 0.500000 0.407043 0.386114
2.338997 -0.513970 -0.314071 0.002000 0.002000 0.002000 1.000000 0.000000 0.000000 0.000000 0.500000 0.500000 0.407043 0.386114
-0.843063 -1.286831 0.552042 0.002000 0.002000 0.002000 1.000000 0.000000 0.000000 0.000000 0.500000 0.500000 0.407043 0.386114
2.584942 0.421560 2.558887 0.002000 0.002000 0.002000 1.000000 0.000000 0.000000 0.000000 0.500000 0.500000 0.407043 0.386114
-1.248321 -0.982650 0.737391 0.002000 0.002000 0.002000 1.000000 0.000000 0.000000 0.000000 0.500000 0.500000 0.407043 0.386114
1.483129 0.620392 0.334998 0.002000 0.002000 0.002000 1.000000 0.000000 0.000000 0.000000 0.500000 0.500000 0.407043 0.386114
-0.579645 -0.241630 -1.053443 0.002000 0.002000 0.002000 1.000000 0.000000 0.000000 0.000000 0.500000 0.500000 0.407043 0.386114
0.270736 -0.252776 0.016659 0.002000 0.002000 0.002000 1.000000 0.000000 0.000000 0.000000 0.500000 0.500000 0.407043 0.386114
-0.201415 0.050299 1.485385 0.002000 0.002000 0.002000 1.000000 0.000000 0.000000 0.000000 0.500000 0.500000 0.407043 0.386114
0.881062 0.975923 0.807918 0.002000 0.002000 0.002000 1.000000 0.000000 0.000000 0.000000 0.500000 0.500000 0.407043 0.386114
-1.348467 1.145636 0.315970 0.002000 0.002000 0.002000 1.000000 0.000000 0.000000 0.000000 0.500000 0.500000 0.407043 0.386114
-0.455210 -0.181354 -0.312536 0.002000 0.002000 0.002000 1.000000 0.000000 0.000000 0.000000 0.500000 0.500000 0.407043 0.386114
0.744454 -0.761398 1.799430 0.002000 0.002000 0.002000 1.000000 0.000000 0.000000 0.000000 0.500000 0.500000 0.407043 0.386114
0.671026 1.539236 -0.846239 0.002000 0.002000 0.002000 1.000000 0.000000 0.000000 0.000000 0.500000 0.500000 0.407043 0.386114
-1.374269 -0.299353 -1.353768 0.002000 0.002000 0.002000 1.000000 0.000000 0.000000 0.000000 0.500000 0.500000 0.407043 0.386114
-0.937500 0.966241 2.290598 0.002000 0.002000 0.002000 1.000000 0.000000 0.000000 0.000000 0.500000 0.500000 0.407043 0.386114
0.457031 1.168905 -0.222580 0.002000 0.002000 0.002000 1.000000 0.000000 0.000000 0.000000 0.500000 0.500000 0.407043 0.386114
1.229355 -0.036878 -0.177437 0.002000 0.002000 0.002000 1.000000 0.000000 0.000000 0.000000 0.500000 0.500000 0.407043 0.386114
1.547802 1.084892 -0.385294 0.002000 0.002000 0.002000 1.000000 0.000000 0.000000 0.000000 0.500000 0.500000 0.407043 0.386114
-0.503728 0.999107 -0.715931 0.002000 0.002000 0.002000 1.000000 0.000000 0.000000 0.000000 0.500000 0.500000 0.407043 0.386114
0.283941 0.593988 0.315329 0.002000 0.002000 0.002000 1.000000 0.000000 0.000000 0.000000 0.500000 0.500000 0.407043 0.386114
0.270481 0.963252 -1.218930 0.002000 0.002000 0.002000 1.000000 0.000000 0.000000 0.000000 0.500000 0.500000 0.407043 0.386114
-0.069296 0.061023 1.476986 0.002000 0.002000 0.002000 1.000000 0.000000 0.000000 0.000000 0.500000 0.500000 0.407043 0.386114
-1.167772 0.431889 0.758210 0.002000 0.002000 0.002000 1.000000 0.000000 0.000000 0.000000 0.500000 0.500000 0.407043 0.386114
0.269077 -0.161381 1.175051 0.002000 0.002000 0.002000 1.000000 0.000000 0.000000 0.000000 0.500000 0.500000 0.407043 0.386114
0.535122 1.225509 0.908578 0.002000 0.002000 0.002000 1.000000 0.000000 0.000000 0.000000 0.500000 0.500000 0.407043 0.386114
0.167769 -0.009965 -0.910478 0.002000 0.002000 0.002000 1.000000 0.000000 0.000000 0.000000 0.500000 0.500000 0.407043 0.386114
0.397435 -0.554363 1.281534 0.002000 0.002000 0.002000 1.000000 0.000000 0.000000 0.000000 0.500000 0.500000 0.407043 0.386114
2.018015 -0.443838 -0.755208 0.002000 0.002000 0.002000 1.000000 0.000000 0.000000 0.000000 0.500000 0.500000 0.407043 0.386114
-1.785017 -0.075489 -0.520736 0.002000 0.002000 0.002000 1.000000 0.000000 0.000000 0.000000 0.500000 0.500000 0.407043 0.386114
-1.048349 0.842421 -0.997626 0.002000 0.002000 0.002000 1.000000 0.000000 0.000000 0.000000 0.500000 0.500000 0.407043 0.386114
0.733574 1.227634 -0.757779 0.002000 0.002000 0.002000 1.000000 0.000000 0.000000 0.000000 0.500000 0.500000 0.407043 0.386114
1.622873 1.292341 -0.262655 0.002000 0.002000 0.002000 1.000000 0.000000 0.000000 0.000000 0.500000 0.500000 0.407043 0.386114
-0.831504 -0.427840 -0.527761 0.002000 0.002000 0.002000 1.000000 0.000000 0.000000 0.000000 0.500000 0.500000 0.407043 0.386114
-1.798737 -0.076778 0.781620 0.002000 0.002000 0.002000 1.000000 0.000000 0.000000 0.000000 0.500000 0.500000 0.407043 0.386114
0.139105 -1.733955 0.739138 0.002000 0.002000 0.002000 1.000000 0.000000 0.000000 0.000000 0.500000 0.500000 0.407043 0.386114
1.411538 0.381439 -0.051373 0.002000 0.002000 0.002000 1.000000 0.000000 0.000000 0.000000 0.500000 0.500000 0.407043 0.386114
0.867922 -1.171275 1.219972 0.002000 0.002000 0.002000 1.000000 0.000000 0.000000 0.000000 0.500000 0.500000 0.407043 0.386114
-0.940491 0.660886 0.822036 0.002000 0.002000 0.002000 1.000000 0.000000 0.000000 0.000000 0.500000 0.500000 0.407043 0.386114
0.389920 -0.491700 -1.689696 0.002000 0.002000 0.002000 1.000000 0.000000 0.000000 0.000000 0.500000 0.500000 0.407043 0.386114
0.056277 -0.240513 0.916007 0.002000 0.002000 0.002000 1.000000 0.000000 0.000000 0.000000 0.500000 0.500000 0.407043 0.386114
0.734839 -0.690263 -0.918692 0.002000 0.002000 0.002000 1.000000 0.000000 0.000000 0.000000 0.500000 0.500000 0.407043 0.386114
-0.686655 -0.103394 -0.326950 0.002000 0.002000 0.002000 1.000000 0.000000 0.000000 0.000000 0.500000 0.500000 0.407043 0.386114
1.245013 0.606936 -0.093770 0.002000 0.002000 0.002000 1.000000 0.000000 0.000000 0.000000 0.500000 0.500000 0.407043 0.386114
0.383226 1.340634 -0.431851 0.002000 0.002000 0.002000 1.000000 0.000000 0.000000 0.000000 0.500000 0.500000 0.407043 0.386114
-1.897345 -2.652250 -0.432824 0.002000 0.002000 0.002000 1.000000 0.000000 0.000000 0.000000 0.500000 0.500000 0.407043 0.386114
0.932184 0.434915 -0.776841 0.002000 0.002000 0.002000 1.000000 0.000000 0.000000 0.000000 0.500000 0.500000 0.407043 0.386114
-0.191728 1.113618 -1.214507 0.002000 0.002000 0.002000 1.000000 0.000000 0.000000 0.000000 0.500000 0.500000 0.407043 0.386114
2.196666 0.412271 -0.704351 0.002000 0.002000 0.002000 1.000000 0.000000 0.000000 0.000000 0.500000 0.500000 0.407043 0.386114
0.098474 1.042015 1.154741 0.002000 0.002000 0.002000 1.000000 0.000000 0.000000 0.000000 0.500000 0.500000 0.407043 0.386114
0.310274 -0.614299 1.667606 0.002000 0.002000 0.002000 1.000000 0.000000 0.000000 0.000000 0.500000 0.500000 0.407043 0.386114
0.014784 -1.325176 -0.834610 0.002000 0.002000 0.002000 1.000000 0.000000 0.000000 0.000000 0.500000 0.500000 0.407043 0.386114
-0.209349 0.211383 -0.159337 0.002000 0.002000 0.002000 1.000000 0.000000 0.000000 0.000000 0.500000 0.500000 0.407043 0.386114
1.438138 -0.896545 0.465598 0.002000 0.002000 0.002000 1.000000 0.000000 0.000000 0.000000 0.500000 0.500000 0.407043 0.386114
-0.780203 -0.751222 0.499766 0.002000 0.002000 0.002000 1.000000 0.000000 0.000000 0.000000 0.500000 0.500000 0.407043 0.386114
0.906355 -0.273310 -0.844499 0.002000 0.002000 0.002000 1.000000 0.000000 0.000000 0.000000 0.500000 0.500000 0.407043 0.386114
0.067407 -1.177112 -2.319306 0.002000 0.002000 0.002000 1.000000 0.000000 0.000000 0.000000 0.500000 0.500000 0.407043 0.386114
1.088154 1.753205 -1.352666 0.002000 0.002000 0.002000 1.000000 0.000000 0.000000 0.000000 0.500000 0.500000 0.407043 0.386114
-1.717095 0.539482 -0.464772 0.002000 0.002000 0.002000 1.000000 0.000000 0.000000 0.000000 0.500000 0.500000 0.407043 0.386114
0.155114 -0.933185 2.051155 0.002000 0.002000 0.002000 1.000000 0.000000 0.000000 0.000000 0.500000 0.500000 0.407043 0.386114
-0.004050 2.646240 1.745022 0.002000 0.002000 0.002000 1.000000 0.000000 0.000000 0.000000 0.500000 0.500000 0.407043 0.386114
0.288874 1.111122 1.117129 0.002000 0.002000 0.002000 1.000000 0.000000 0.000000 0.000000 0.500000 0.500000 0.407043 0.386114
-0.796689 1.022942 -1.074247 0.002000 0.002000 0.002000 1.000000 0.000000 0.000000 0.000000 0.500000 0.500000 0.407043 0.386114
-1.449900 -0.523186 0.343824 0.002000 0.002000 0.002000 1.000000 0.000000 0.000000 0.000000 0.500000 0.500000 0.407043 0.386114
0.203756 -1.471375 0.197780 0.002000 0.002000 0.002000 1.000000 0.000000 0.000000 0.000000 0.500000 0.500000 0.407043 0.386114
-0.322281 1.892601 0.690365 0.002000 0.002000 0.002000 1.000000 0.000000 0.000000 0.000000 0.500000 0.500000 0.407043 0.386114
1.435260 1.086499 -0.398937 0.002000 0.002000 0.002000 1.000000 0.000000 0.000000 0.000000 0.500000 0.500000 0.407043 0.386114
-2.048728 -1.137302 0.904634 0.002000 0.002000 0.002000 1.000000 0.000000 0.000000 0.000000 0.500000 0.500000 0.407043 0.386114
0.527992 -0.500513 0.037884 0.002000 0.002000 0.002000 1.000000 0.000000 0.000000 0.000000 0.500000 0.500000 0.407043 0.386114
-1.012954 0.784369 1.328055 0.002000 0.002000 0.002000 1.000000 0.000000 0.000000 0.000000 0.500000 0.500000 0.407043 0.386114
-0.513882 -0.048325 -0.207331 0.002000 0.002000 0.002000 1.000000 0.000000 0.000000 0.000000 0.500000 0.500000 0.407043 0.386114
0.418779 1.795504 -0.699406 0.002000 0.002000 0.002000 1.000000 0.000000 0.000000 0.000000 0.500000 0.500000 0.407043 0.386114
-0.436776 0.344295 -0.531517 0.002000 0.002000 0.002000 1.000000 0.000000 0.000000 0.000000 0.500000 0.500000 0.407043 0.386114
-1.787896 0.575962 -0.371072 0.002000 0.002000 0.002000 1.000000 0.000000 0.000000 0.000000 0.500000 0.500000 0.407043 0.386114
-0.021486 -0.324612 0.754200 0.002000 0.002000 0.002000 1.000000 0.000000 0.000000 0.000000 0.500000 0.500000 0.407043 0.386114
-1.730236 -0.640478 -0.024383 0.002000 0.002000 0.002000 1.000000 0.000000 0.000000 0.000000 0.500000 0.500000 0.407043 0.386114
1.732035 0.392420 -0.370479 0.002000 0.002000 0.002000 1.000000 0.000000 0.000000 0.000000 0.500000 0.500000 0.407043 0.386114
0.881125 0.537392 -0.484246 0.002000 0.002000 0.002000 1.000000 0.000000 0.000000 0.000000 0.500000 0.500000 0.407043 0.386114
-1.163267 0.327574 -1.685357 0.002000 0.002000 0.002000 1.000000 0.000000 0.000000 0.000000 0.500000 0.500000 0.407043 0.386114
-1.058225 1.454386 -0.297554 0.002000 0.002000 0.002000 1.000000 0.000000 0.000000 0.000000 0.500000 0.500000 0.407043 0.386114
-0.874104 -1.033205 -0.415230 0.002000 0.002000 0.002000 1.000000 0.000000 0.000000 0.000000 0.500000 0.500000 0.407043 0.386114
1.558550 0.521018 1.036445 0.002000 0.002000 0.002000 1.000000 0.000000 0.000000 0.000000 0.500000 0.500000 0.407043 0.386114
0.210250 -1.150296 -0.258320 0.002000 0.002000 0.002000 1.000000 0.000000 0.000000 0.000000 0.500000 0.500000 0.407043 0.386114
0.281440 -0.515926 1.522001 0.002000 0.002000 0.002000 1.000000 0.000000 0.000000 0.000000 0.500000 0.500000 0.407043 0.386114
-0.422819 0.567564 0.479512 0.002000 0.002000 0.002000 1.000000 0.000000 0.000000 0.000000 0.500000 0.500000 0.407043 0.386114
-0.962892 0.166520 0.179222 0.002000 0.002000 0.002000 1.000000 0.000000 0.000000 0.000000 0.500000 0.500000 0.407043 0.386114
-0.614938 0.884855 -0.872130 0.002000 0.002000 0.002000 1.000000 0.000000 0.000000 0.000000 0.500000 0.500000 0.407043 0.386114
-1.376957 -1.848775 0.305616 0.002000 0.002000 0.002000 1.000000 0.000000 0.000000 0.000000 0.500000 0.500000 0.407043 0.386114
-0.424487 0.626986 -0.643854 0.002000 0.002000 0.002000 1.000000 0.000000 0.000000 0.000000 0.500000 0.500000 0.407043 0.386114
3.059858 0.868874 0.733194 0.002000 0.002000 0.002000 1.000000 0.000000 0.000000 0.000000 0.500000 0.500000 0.407043 0.386114
1.755219 -0.242506 1.988074 0.002000 0.002000 0.002000 1.000000 0.000000 0.000000 0.000000 0.500000 0.500000 0.407043 0.386114
-1.137036 -2.249959 -0.581070 0.002000 0.002000 0.002000 1.000000 0.000000 0.000000 0.000000 0.500000 0.500000 0.407043 0.386114
-0.749039 -2.154368 -0.156929 0.002000 0.002000 0.002000 1.000000 0.000000 0.000000 0.000000 0.500000 0.500000 0.407043 0.386114
0.097311 0.253868 1.504923 0.002000 0.002000 0.002000 1.000000 0.000000 0.000000 0.000000 0.500000 0.500000 0.407043 0.386114
1.313053 -0.739536 -1.813648 0.002000 0.002000 0.002000 1.000000 0.000000 0.000000 0.000000 0.500000 0.500000 0.407043 0.386114
-0.288168 -0.402303 0.728748 0.002000 0.002000 0.002000 1.000000 0.000000 0.000000 0.000000 0.500000 0.500000 0.407043 0.386114
-0.499435 0.702845 0.342160 0.002000 0.002000 0.002000 1.000000 0.000000 0.000000 0.000000 0.500000 0.500000 0.407043 0.386114
-1.341348 2.590573 -0.144200 0.002000 0.002000 0.002000 1.000000 0.000000 0.000000 0.000000 0.500000 0.500000 0.407043 0.386114
-0.476942 -0.228903 0.370448 0.002000 0.002000 0.002000 1.000000 0.000000 0.000000 0.000000 0.500000 0.500000 0.407043 0.386114
1.024267 0.350929 -0.116026 0.002000 0.002000 0.002000 1.000000 0.000000 0.000000 0.000000 0.500000 0.500000 0.407043 0.386114
-0.512895 0.861373 2.617751 0.002000 0.002000 0.002000 1.000000 0.000000 0.000000 0.000000 0.500000 0.500000 0.407043 0.386114
0.852255 0.344292 -0.219414 0.002000 0.002000 0.002000 1.000000 0.000000 0.000000 0.000000 0.500000 0.500000 0.407043 0.386114
1.695210 0.731261 -0.709572 0.002000 0.002000 0.002000 1.000000 0.000000 0.000000 0.000000 0.500000 0.500000 0.407043 0.386114
1.510571 0.914308 -1.295012 0.002000 0.002000 0.002000 1.000000 0.000000 0.000000 0.000000 0.500000 0.500000 0.407043 0.386114
0.950612 -1.341554 0.958425 0.002000 0.002000 0.002000 1.000000 0.000000 0.000000 0.000000 0.500000 0.500000 0.407043 0.386114
-1.834415 -0.594528 -1.670995 0.002000 0.002000 0.002000 1.000000 0.000000 0.000000 0.000000 0.500000 0.500000 0.407043 0.386114
-1.344239 -0.792190 0.125347 0.002000 0.002000 0.002000 1.000000 0.000000 0.000000 0.000000 0.500000 0.500000 0.407043 0.386114
-0.997217 0.931689 -1.098997 0.002000 0.002000 0.002000 1.000000 0.000000 0.000000 0.000000 0.500000 0.500000 0.407043 0.386114
0.881667 -2.032501 -0.352242 0.002000 0.002000 0.002000 1.000000 0.000000 0.000000 0.000000 0.500000 0.500000 0.407043 0.386114
0.100609 1.525544 -1.621500 0.002000 0.002000 0.002000 1.000000 0.000000 0.000000 0.000000 0.500000 0.500000 0.407043 0.386114
0.529845 -1.371881 -0.629810 0.002000 0.002000 0.002000 1.000000 0.000000 0.000000 0.000000 0.500000 0.500000 0.407043 0.386114
-0.656681 0.424428 -0.401226 0.002000 0.002000 0.002000 1.000000 0.000000 0.000000 0.000000 0.500000 0.500000 0.407043 0.386114
-0.489012 0.957183 -0.843637 0.002000 0.002000 0.002000 1.000000 0.000000 0.000000 0.000000 0.500000 0.500000 0.407043 0.386114
-0.368060 0.417045 -0.871255 0.002000 0.002000 0.002000 1.000000 0.000000 0.000000 0.000000 0.500000 0.500000 0.407043 0.386114
-0.162233 -0.948121 -0.653496 0.002000 0.002000 0.002000 1.000000 0.000000 0.000000 0.000000 0.500000 0.500000 0.407043 0.386114
-0.358512 -0.817565 0.373610 0.002000 0.002000 0.002000 1.000000 0.000000 0.000000 0.000000 0.500000 0.500000 0.407043 0.386114
0.912218 0.678130 0.055852 0.002000 0.002000 0.002000 1.000000 0.000000 0.000000 0.000000 0.500000 0.500000 0.407043 0.386114
-1.339462 -0.300169 0.159993 0.002000 0.002000 0.002000 1.000000 0.000000 0.000000 0.000000 0.500000 0.500000 0.407043 0.386114
-0.676912 0.750449 -2.260039 0.002000 0.002000 0.002000 1.000000 0.000000 0.000000 0.000000 0.500000 0.500000 0.407043 0.386114
-1.361754 1.576571 0.146519 0.002000 0.002000 0.002000 1.000000 0.000000 0.000000 0.000000 0.500000 0.500000 0.407043 0.386114
1.804587 1.303321 0.184056 0.002000 0.002000 0.002000 1.000000 0.000000 0.000000 0.000000 0.500000 0.500000 0.407043 0.386114
-1.956492 0.148796 -0.936643 0.002000 0.002000 0.002000 1.000000 0.000000 0.000000 0.000000 0.500000 0.500000 0.407043 0.386114
-0.950509 -0.299363 -0.651776 0.002000 0.002000 0.002000 1.000000 0.000000 0.000000 0.000000 0.500000 0.500000 0.407043 0.386114
0.276897 -0.006574 -1.879154 0.002000 0.002000 0.002000 1.000000 0.000000 0.000000 0.000000 0.500000 0.500000 0.407043 0.386114
-0.882796 -0.035110 0.331063 0.002000 0.002000 0.002000 1.000000 0.000000 0.000000 0.000000 0.500000 0.500000 0.407043 0.386114
-1.535097 1.579168 1.562730 0.002000 0.002000 0.002000 1.000000 0.000000 0.000000 0.000000 0.500000 0.500000 0.407043 0.386114
1.033977 -0.644834 -0.795682 0.002000 0.002000 0.002000 1.000000 0.000000 0.000000 0.000000 0.500000 0.500000 0.407043 0.386114
0.474784 0.645015 -2.469493 0.002000 0.002000 0.002000 1.000000 0.000000 0.000000 0.000000 0.500000 0.500000 0.407043 0.386114
-1.270392 1.402854 0.394716 0.002000 0.002000 0.002000 1.000000 0.000000 0.000000 0.000000 0.500000 0.500000 0.407043 0.386114
-0.291423 -0.472448 -0.699374 0.002000 0.002000 0.002000 1.000000 0.000000 0.000000 0.000000 0.500000 0.500000 0.407043 0.386114
0.452386 -1.090578 0.941156 0.002000 0.002000 0.002000 1.000000 0.000000 0.000000 0.000000 0.500000 0.500000 0.407043 0.386114
-1.931667 0.128510 -1.013432 0.002000 0.002000 0.002000 1.000000 0.000000 0.000000 0.000000 0.500000 0.500000 0.407043 0.386114
0.747944 0.201128 -0.899563 0.002000 0.002000 0.002000 1.000000 0.000000 0.000000 0.000000 0.500000 0.500000 0.407043 0.386114
-0.290680 0.104713 -0.594369 0.002000 0.002000 0.002000 1.000000 0.000000 0.000000 0.000000 0.500000 0.500000 0.407043 0.386114
-1.727795 1.055719 0.216788 0.002000 0.002000 0.002000 1.000000 0.000000 0.000000 0.000000 0.500000 0.500000 0.407043 0.386114
0.235020 1.814197 -1.532907 0.002000 0.002000 0.002000 1.000000 0.000000 0.000000 0.000000 0.500000 0.500000 0.407043 0.386114
-0.365237 -1.512671 0.793061 0.002000 0.002000 0.002000 1.000000 0.000000 0.000000 0.000000 0.500000 0.500000 0.407043 0.386114
-1.063169 0.998486 1.037605 0.002000 0.002000 0.002000 1.000000 0.000000 0.000000 0.000000 0.500000 0.500000 0.407043 0.386114
-0.040090 -1.590848 0.307120 0.002000 0.002000 0.002000 1.000000 0.000000 0.000000 0.000000 0.500000 0.500000 0.407043 0.386114
1.117589 -1.345697 1.057225 0.002000 0.002000 0.002000 1.000000 0.000000 0.000000 0.000000 0.500000 0.500000 0.407043 0.386114
-1.553786 -0.900029 1.180069 0.002000 0.002000 0.002000 1.000000 0.000000 0.000000 0.000000 0.500000 0.500000 0.407043 0.386114
-1.084979 0.666202 -0.725314 0.002000 0.002000 0.002000 1.000000 0.000000 0.000000 0.000000 0.500000 0.500000 0.407043 0.386114
1.352826 -0.136464 1.106233 0.002000 0.002000 0.002000 1.000000 0.000000 0.000000 0.000000 0.500000 0.500000 0.407043 0.386114
-0.277527 -0.730127 -0.905887 0.002000 0.002000 0.002000 1.000000 0.000000 0.000000 0.000000 0.500000 0.500000 0.407043 0.386114
0.339551 0.954082 -0.042209 0.002000 0.002000 0.002000 1.000000 0.000000 0.000000 0.000000 0.500000 0.500000 0.407043 0.386114
0.059120 -0.044160 0.657387 0.002000 0.002000 0.002000 1.000000 0.000000 0.000000 0.000000 0.500000 0.500000 0.407043 0.386114
